-0.0458984	-0.0367432	-1.00586	0	1	0
-0.0450439	-0.0378418	-1.00549	0	0	0
-0.0444336	-0.0366211	-1.00354	0	0	0
-0.0460205	-0.0362549	-1.00427	0	0	0
-0.0460205	-0.0357666	-1.0061	0	1	0
-0.0452881	-0.0368652	-1.00403	0	1	0
-0.0438232	-0.0361328	-1.00439	0	1	0
-0.0449219	-0.0350342	-1.00476	0	1	0
-0.0438232	-0.0336914	-1.00525	0	1	0
-0.0426025	-0.0339355	-1.00525	0	1	0
-0.0424805	-0.0358887	-1.00476	0	1	0
-0.0415039	-0.0356445	-1.00415	0	1	0
-0.0435791	-0.0355225	-1.00427	0	1	0
-0.0428467	-0.0360107	-1.00513	0	1	0
-0.0450439	-0.0344238	-1.005	0	1	0
-0.0438232	-0.0358887	-1.005	0	1	0
-0.0400391	-0.0372314	-1.00562	0	1	0
-0.0421143	-0.0356445	-1.00452	0	0	0
-0.0428467	-0.0358887	-1.00476	0	0	0
-0.043335	-0.0362549	-1.00378	0	0	0
-0.0423584	-0.0367432	-1.00439	0	0	0
-0.041748	-0.0357666	-1.005	0	0	0
-0.0411377	-0.0361328	-1.00439	0	0	0
-0.0395508	-0.03479	-1.00586	0	0	0
-0.0408936	-0.0357666	-1.005	0	0	0
-0.0385742	-0.0358887	-1.00574	0	0	0
-0.0401611	-0.0360107	-1.00525	0	0	0
-0.0410156	-0.0366211	-1.00476	0	0	0
-0.041626	-0.0352783	-1.005	0	0	0
-0.0432129	-0.0356445	-1.00415	0	-1	0
-0.0444336	-0.0356445	-1.00476	0	-1	0
-0.043457	-0.0341797	-1.00366	0	-1	0
-0.0440674	-0.0357666	-1.00354	0	0	0
-0.0443115	-0.0358887	-1.00403	0	0	0
-0.0474854	-0.0369873	-1.00391	0	0	0
-0.0480957	-0.0374756	-1.00391	0	0	0
-0.0456543	-0.036377	-1.00391	0	0	0
-0.0471191	-0.0372314	-1.00415	0	0	0
-0.0467529	-0.036377	-1.00391	0	0	0
-0.045166	-0.036377	-1.00488	0	0	0
-0.0443115	-0.0352783	-1.00488	0	0	0
-0.0446777	-0.0361328	-1.00403	0	0	0
-0.0443115	-0.0357666	-1.00439	0	0	0
-0.0429688	-0.0366211	-1.00403	0	0	0
-0.0430908	-0.0357666	-1.00391	0	0	0
-0.0429688	-0.0372314	-1.00366	0	0	0
-0.041626	-0.0362549	-1.005	0	0	0
-0.0424805	-0.0350342	-1.00415	0	0	0
-0.0432129	-0.0352783	-1.00488	0	0	0
-0.0428467	-0.0352783	-1.00549	0	0	0
-0.0432129	-0.0352783	-1.00659	0	0	0
-0.0432129	-0.0349121	-1.00439	0	0	0
-0.0444336	-0.0355225	-1.00427	0	0	0
-0.0444336	-0.0361328	-1.00513	0	0	0
-0.0444336	-0.0371094	-1.00562	0	0	0
-0.0441895	-0.0351562	-1.00562	0	0	0
-0.0435791	-0.0352783	-1.00586	0	0	0
-0.0445557	-0.0361328	-1.00549	0	0	0
-0.0441895	-0.034668	-1.00488	0	0	0
-0.0435791	-0.0350342	-1.00342	0	0	0
-0.0411377	-0.0357666	-1.00476	0	0	0
-0.0418701	-0.0368652	-1.00464	0	0	0
-0.0427246	-0.0362549	-1.00415	0	0	0
-0.0424805	-0.0361328	-1.00488	0	0	0
-0.0421143	-0.0362549	-1.00464	0	0	0
-0.0413818	-0.0360107	-1.00366	0	0	0
-0.0422363	-0.0361328	-1.00415	0	0	0
-0.0430908	-0.0343018	-1.00439	0	0	0
-0.0426025	-0.036377	-1.00415	0	0	0
-0.0418701	-0.0368652	-1.00525	0	0	0
-0.0419922	-0.0367432	-1.00525	0	0	0
-0.0426025	-0.0367432	-1.00403	0	0	0
-0.0413818	-0.0350342	-1.00403	0	0	0
-0.0432129	-0.0360107	-1.00415	0	0	0
-0.0428467	-0.0352783	-1.00378	0	0	0
-0.043335	-0.0345459	-1.00488	0	0	0
-0.0438232	-0.0354004	-1.00476	0	0	0
-0.0426025	-0.0355225	-1.00439	0	0	0
-0.041626	-0.0355225	-1.00452	0	0	0
-0.0418701	-0.0350342	-1.00415	0	0	0
-0.0419922	-0.0360107	-1.00391	0	0	0
-0.0408936	-0.0361328	-1.00574	0	0	0
-0.0415039	-0.036499	-1.00427	0	0	0
-0.0415039	-0.0350342	-1.00574	0	1	0
-0.0410156	-0.0361328	-1.005	0	0	0
-0.0418701	-0.0374756	-1.0061	0	0	0
-0.0408936	-0.0366211	-1.00488	0	0	0
-0.0410156	-0.034668	-1.00659	0	0	0
-0.0410156	-0.0373535	-1.00513	0	0	0
-0.0402832	-0.036499	-1.00525	0	0	0
-0.0407715	-0.0371094	-1.00464	0	0	0
-0.0400391	-0.0375977	-1.00403	0	0	0
-0.0432129	-0.0350342	-1.00464	0	0	0
-0.0404053	-0.0371094	-1.00415	0	0	0
-0.0390625	-0.036499	-1.00476	0	0	0
-0.0411377	-0.0360107	-1.00378	0	0	0
-0.0421143	-0.0361328	-1.005	0	0	0
-0.0412598	-0.0356445	-1.00476	0	0	0
-0.0405273	-0.0367432	-1.005	0	0	0
-0.0400391	-0.0356445	-1.005	0	0	0
-0.039917	-0.0361328	-1.00549	0	0	0
-0.039917	-0.0355225	-1.00476	0	0	0
-0.0394287	-0.034668	-1.00562	0	0	0
-0.0393066	-0.0352783	-1.00525	0	0	0
-0.0400391	-0.036499	-1.00562	0	0	0
-0.0394287	-0.0351562	-1.00427	0	0	0
-0.0393066	-0.0351562	-1.00452	0	0	0
-0.0397949	-0.0352783	-1.00366	0	0	0
-0.0415039	-0.0355225	-1.00403	0	0	0
-0.041748	-0.0355225	-1.00525	0	0	0
-0.039917	-0.0361328	-1.00623	0	0	0
-0.0388184	-0.036499	-1.00488	0	0	0
-0.0396729	-0.0361328	-1.00464	0	0	0
-0.041748	-0.0378418	-1.00488	0	0	0
-0.0415039	-0.0367432	-1.00525	0	0	0
-0.0408936	-0.0350342	-1.00513	0	0	0
-0.0404053	-0.0366211	-1.00452	0	0	0
-0.0400391	-0.0361328	-1.00452	0	0	0
-0.0404053	-0.0377197	-1.00549	0	0	0
-0.0407715	-0.0362549	-1.00415	0	0	0
-0.0393066	-0.0357666	-1.00439	0	0	0
-0.0396729	-0.0360107	-1.00403	0	0	0
-0.0384521	-0.0366211	-1.00476	0	0	0
-0.0401611	-0.0344238	-1.00415	0	0	0
-0.0397949	-0.036499	-1.00427	0	0	0
-0.0396729	-0.0354004	-1.00476	0	0	0
-0.0429688	-0.0351562	-1.00464	0	0	0
-0.0427246	-0.0351562	-1.00476	0	0	0
-0.0418701	-0.0352783	-1.005	0	0	0
-0.0422363	-0.0369873	-1.00317	0	0	0
-0.0395508	-0.0358887	-1.00464	0	0	0
-0.0395508	-0.0339355	-1.00476	0	0	0
-0.0391846	-0.0350342	-1.00391	0	0	0
-0.0395508	-0.0362549	-1.00366	0	0	0
-0.0404053	-0.036499	-1.00464	0	0	0
-0.0410156	-0.0367432	-1.00488	0	0	0
-0.0408936	-0.0356445	-1.00452	0	0	0
-0.0400391	-0.0368652	-1.00391	0	0	0
-0.0397949	-0.0357666	-1.00562	0	0	0
-0.0410156	-0.036499	-1.00537	0	0	0
-0.0396729	-0.0366211	-1.005	0	0	0
-0.0404053	-0.0355225	-1.00403	0	0	0
-0.0413818	-0.036499	-1.00525	0	0	0
-0.0415039	-0.03479	-1.00549	0	0	0
-0.0412598	-0.034668	-1.00488	0	0	0
-0.0380859	-0.0354004	-1.00598	0	0	0
-0.0413818	-0.0343018	-1.00452	0	0	0
-0.043457	-0.0350342	-1.00415	0	0	0
-0.0422363	-0.0349121	-1.00415	0	0	0
-0.0419922	-0.0356445	-1.00464	0	0	0
-0.0395508	-0.036377	-1.00488	0	0	0
-0.041626	-0.03479	-1.005	0	0	0
-0.039917	-0.0358887	-1.00537	0	0	0
-0.0404053	-0.0373535	-1.00549	0	0	0
-0.0406494	-0.0375977	-1.00537	0	0	0
-0.0400391	-0.0356445	-1.00549	0	0	0
-0.0412598	-0.0356445	-1.00439	0	0	0
-0.0405273	-0.0367432	-1.00452	0	0	0
-0.0410156	-0.0362549	-1.00537	0	0	0
-0.0407715	-0.0351562	-1.00525	0	0	0
-0.041748	-0.0357666	-1.00427	0	0	0
-0.0422363	-0.0350342	-1.00439	0	0	0
-0.0410156	-0.0354004	-1.00513	0	0	0
-0.0411377	-0.0349121	-1.00562	0	0	0
-0.0413818	-0.0358887	-1.00488	0	0	0
-0.0406494	-0.0354004	-1.00439	0	0	0
-0.0393066	-0.0360107	-1.005	0	0	0
-0.0391846	-0.0356445	-1.00574	0	0	0
-0.0408936	-0.0371094	-1.00415	0	0	0
-0.0401611	-0.0385742	-1.005	0	0	0
-0.0384521	-0.0369873	-1.00562	0	0	0
-0.039917	-0.0361328	-1.00537	0	0	0
-0.0405273	-0.0360107	-1.00427	0	0	0
-0.039917	-0.0369873	-1.00488	0	0	0
-0.0411377	-0.0372314	-1.00452	0	0	0
-0.039917	-0.0357666	-1.00537	0	0	0
-0.0411377	-0.0356445	-1.00488	0	0	0
-0.0413818	-0.0357666	-1.00525	0	0	0
-0.0412598	-0.036499	-1.005	0	0	0
-0.0401611	-0.0368652	-1.00391	0	0	0
-0.0405273	-0.0372314	-1.00647	0	0	0
-0.0404053	-0.036377	-1.00549	0	0	0
-0.0389404	-0.0368652	-1.00549	0	0	0
-0.0386963	-0.0356445	-1.00525	0	0	0
-0.0395508	-0.0354004	-1.00513	0	0	0
-0.0402832	-0.0361328	-1.00513	0	0	0
-0.0402832	-0.0362549	-1.00464	0	0	0
-0.0401611	-0.0377197	-1.00562	0	0	0
-0.0401611	-0.0355225	-1.00403	0	0	0
-0.0402832	-0.0368652	-1.00452	0	0	0
-0.0402832	-0.0356445	-1.00415	0	0	0
-0.0388184	-0.0360107	-1.00427	0	0	0
-0.0375977	-0.0375977	-1.00366	0	0	0
-0.0380859	-0.0368652	-1.00464	0	0	0
-0.0377197	-0.0368652	-1.00537	0	0	0
-0.038208	-0.0349121	-1.00439	0	0	0
-0.0378418	-0.0368652	-1.00525	0	0	0
-0.0400391	-0.0356445	-1.00378	0	0	0
-0.0404053	-0.0355225	-1.00452	0	0	0
-0.0406494	-0.0350342	-1.00403	0	0	0
-0.039917	-0.0366211	-1.00427	0	0	0
-0.039917	-0.0356445	-1.00452	0	0	0
-0.0397949	-0.0361328	-1.0033	0	0	0
-0.0391846	-0.0379639	-1.00586	0	0	0
-0.0400391	-0.036499	-1.00549	0	0	0
-0.0394287	-0.0354004	-1.00452	0	0	0
-0.0390625	-0.0369873	-1.00537	0	0	0
-0.0412598	-0.0367432	-1.00342	0	0	0
-0.0394287	-0.036499	-1.00525	0	0	0
-0.0383301	-0.0357666	-1.00378	0	0	0
-0.0394287	-0.0351562	-1.00488	0	0	0
-0.039917	-0.0349121	-1.005	0	0	0
-0.0395508	-0.0349121	-1.00513	0	0	0
-0.0391846	-0.0352783	-1.00378	0	0	0
-0.0390625	-0.0355225	-1.00415	0	0	0
-0.039917	-0.0358887	-1.00391	0	0	0
-0.0396729	-0.034668	-1.00439	0	0	0
-0.0384521	-0.03479	-1.00537	0	0	0
-0.0391846	-0.0360107	-1.00464	0	0	0
-0.0397949	-0.0369873	-1.00452	0	0	0
-0.0395508	-0.0360107	-1.00452	0	0	0
-0.0395508	-0.0343018	-1.00415	0	0	0
-0.0393066	-0.0340576	-1.00415	0	0	0
-0.0379639	-0.0351562	-1.00342	0	0	0
-0.0406494	-0.036377	-1.00391	0	0	0
-0.0388184	-0.0367432	-1.00439	0	0	0
-0.0396729	-0.0361328	-1.00464	0	0	0
-0.0386963	-0.0357666	-1.00562	0	0	0
-0.0384521	-0.0358887	-1.00525	0	0	0
-0.0385742	-0.0380859	-1.00513	0	0	0
-0.0380859	-0.0356445	-1.00403	0	0	0
-0.0391846	-0.0357666	-1.00378	0	0	0
-0.0379639	-0.036377	-1.00549	0	0	0
-0.0379639	-0.0350342	-1.00391	0	0	0
-0.0390625	-0.0358887	-1.00464	0	0	0
-0.0373535	-0.0357666	-1.00439	0	0	0
-0.0379639	-0.0350342	-1.00513	0	0	0
-0.0397949	-0.0356445	-1.00525	0	0	0
-0.041748	-0.0360107	-1.00439	0	0	0
-0.0412598	-0.0355225	-1.00439	0	0	0
-0.0396729	-0.0354004	-1.00427	0	0	0
-0.0385742	-0.0352783	-1.00378	0	0	0
-0.0418701	-0.0366211	-1.00354	0	0	0
-0.0400391	-0.0367432	-1.00488	0	0	0
-0.0379639	-0.0350342	-1.00452	0	0	0
-0.0386963	-0.0349121	-1.00439	0	0	0
-0.0373535	-0.0369873	-1.005	0	0	0
-0.0385742	-0.0360107	-1.00537	0	0	0
-0.0388184	-0.0362549	-1.005	0	0	0
-0.0383301	-0.0369873	-1.00488	0	0	0
-0.0379639	-0.0360107	-1.00464	0	0	0
-0.0386963	-0.0371094	-1.00464	0	0	0
-0.0368652	-0.0356445	-1.00439	0	0	0
-0.0384521	-0.0358887	-1.00586	0	0	0
-0.0379639	-0.0355225	-1.005	0	0	0
-0.0396729	-0.0356445	-1.00488	0	0	0
-0.0396729	-0.03479	-1.00452	0	0	0
-0.0415039	-0.0341797	-1.00366	0	0	0
-0.0396729	-0.0343018	-1.005	0	0	0
-0.0400391	-0.03479	-1.00427	0	0	0
-0.0401611	-0.0345459	-1.00598	0	0	0
-0.0396729	-0.0358887	-1.00562	0	0	0
-0.0388184	-0.0366211	-1.00464	0	0	0
-0.0389404	-0.0349121	-1.00452	0	0	0
-0.0383301	-0.0371094	-1.005	0	0	0
-0.0379639	-0.0367432	-1.00562	0	0	0
-0.0377197	-0.0349121	-1.0061	0	0	0
-0.0379639	-0.0350342	-1.00464	0	0	0
-0.0383301	-0.0354004	-1.00476	0	0	0
-0.0375977	-0.0369873	-1.00366	0	0	0
-0.0397949	-0.0368652	-1.00452	0	0	0
-0.0395508	-0.036377	-1.00513	0	0	0
-0.0377197	-0.0369873	-1.00586	0	0	0
-0.0388184	-0.0357666	-1.00439	0	0	0
-0.0374756	-0.0358887	-1.00452	0	0	0
-0.0375977	-0.036377	-1.005	0	0	0
-0.038208	-0.0355225	-1.00415	0	0	0
-0.0394287	-0.0361328	-1.00439	0	0	0
-0.0395508	-0.0339355	-1.00488	0	0	0
-0.0395508	-0.0350342	-1.00464	0	0	0
-0.0369873	-0.0343018	-1.00452	0	0	0
-0.0385742	-0.0339355	-1.00598	0	0	0
-0.0391846	-0.0351562	-1.00488	0	0	0
-0.0379639	-0.0360107	-1.00427	0	0	0
-0.0384521	-0.0368652	-1.00464	0	0	0
-0.0367432	-0.0380859	-1.00537	0	0	0
-0.0377197	-0.0372314	-1.00574	0	0	0
-0.0379639	-0.0368652	-1.00537	0	0	0
-0.0380859	-0.0379639	-1.00464	0	0	0
-0.0377197	-0.0372314	-1.00525	0	0	0
-0.0388184	-0.0358887	-1.00659	0	0	0
-0.0388184	-0.0355225	-1.00513	0	0	0
-0.0384521	-0.0369873	-1.00513	0	0	0
-0.0396729	-0.0354004	-1.00415	0	0	0
-0.0383301	-0.0355225	-1.00513	0	0	0
-0.0386963	-0.0352783	-1.00513	0	0	0
-0.0395508	-0.0355225	-1.00562	0	0	0
-0.0384521	-0.036377	-1.00403	0	0	0
-0.0372314	-0.0341797	-1.00525	0	0	0
-0.0368652	-0.0357666	-1.00488	0	0	0
-0.0384521	-0.0356445	-1.00464	0	0	0
-0.0368652	-0.0358887	-1.00562	0	0	0
-0.0374756	-0.0358887	-1.00366	0	0	0
-0.0380859	-0.0354004	-1.00513	0	0	0
-0.0384521	-0.0354004	-1.00549	0	0	0
-0.0379639	-0.0357666	-1.00549	0	0	0
-0.0393066	-0.0358887	-1.00464	0	0	0
-0.0386963	-0.0349121	-1.00415	0	0	0
-0.0385742	-0.0354004	-1.00342	0	0	0
-0.0384521	-0.0355225	-1.00488	0	0	0
-0.0369873	-0.0357666	-1.00354	0	0	0
-0.0377197	-0.0366211	-1.00439	0	0	0
-0.0374756	-0.0350342	-1.00586	0	0	0
-0.0385742	-0.0355225	-1.00464	0	0	0
-0.0388184	-0.0355225	-1.00293	0	0	0
-0.0383301	-0.0349121	-1.00439	0	0	0
-0.0388184	-0.0355225	-1.00439	0	0	0
-0.0377197	-0.0352783	-1.00525	0	0	0
-0.0388184	-0.0366211	-1.00562	0	0	0
-0.0384521	-0.036499	-1.00476	0	0	0
-0.0388184	-0.0345459	-1.00464	0	0	0
-0.0367432	-0.0360107	-1.00464	0	0	0
-0.0375977	-0.0372314	-1.00525	0	0	0
-0.0377197	-0.0371094	-1.00366	0	0	0
-0.0379639	-0.036377	-1.00366	0	0	0
-0.0393066	-0.0351562	-1.00476	0	0	0
-0.0393066	-0.0344238	-1.00427	0	0	0
-0.0393066	-0.034668	-1.00366	0	0	0
-0.0386963	-0.0345459	-1.00439	0	0	0
-0.0395508	-0.034668	-1.00415	0	0	0
-0.0390625	-0.0351562	-1.00415	0	0	0
-0.038208	-0.0357666	-1.00562	0	0	0
-0.0383301	-0.0357666	-1.005	0	0	0
-0.0366211	-0.0350342	-1.00415	0	0	0
-0.036377	-0.0352783	-1.00452	0	0	0
-0.0375977	-0.0374756	-1.00464	0	0	0
-0.0404053	-0.0358887	-1.00317	0	0	0
-0.0428467	-0.0369873	-1.00415	0	0	0
-0.0391846	-0.0369873	-1.00342	0	0	0
-0.0386963	-0.0351562	-1.00378	0	0	0
-0.0395508	-0.036499	-1.00549	0	0	0
-0.0402832	-0.0361328	-1.00427	0	0	0
-0.0404053	-0.0349121	-1.00464	0	0	0
-0.0385742	-0.0373535	-1.00476	0	0	0
-0.0401611	-0.036377	-1.00488	0	0	0
-0.0408936	-0.0362549	-1.00513	0	0	0
-0.0394287	-0.0352783	-1.00476	0	0	0
-0.0388184	-0.0350342	-1.00488	0	0	0
-0.0394287	-0.034668	-1.00464	0	0	0
-0.0402832	-0.0358887	-1.00354	0	0	0
-0.0395508	-0.0345459	-1.00488	0	0	0
-0.0407715	-0.0362549	-1.00427	0	0	0
-0.0377197	-0.0357666	-1.00513	0	0	0
-0.0377197	-0.0357666	-1.00464	0	0	0
-0.0391846	-0.0373535	-1.005	0	0	0
-0.0391846	-0.0350342	-1.00513	0	0	0
-0.0389404	-0.0349121	-1.0033	0	0	0
-0.0408936	-0.0352783	-1.005	0	0	0
-0.0389404	-0.0366211	-1.00598	0	0	0
-0.0366211	-0.0372314	-1.00525	0	0	0
-0.0373535	-0.0369873	-1.00464	0	0	0
-0.0379639	-0.0361328	-1.005	0	0	0
-0.0400391	-0.0355225	-1.005	0	0	0
-0.0404053	-0.0344238	-1.00513	0	0	0
-0.0396729	-0.0338135	-1.00549	0	0	0
-0.0379639	-0.0355225	-1.00562	0	0	0
-0.0372314	-0.0357666	-1.0061	0	0	0
-0.0393066	-0.0345459	-1.00513	0	0	0
-0.0402832	-0.036499	-1.00439	0	0	0
-0.0395508	-0.0367432	-1.00537	0	0	0
-0.0404053	-0.0372314	-1.005	0	0	0
-0.0368652	-0.0354004	-1.00415	0	0	0
-0.0380859	-0.034668	-1.00488	0	0	0
-0.0386963	-0.0361328	-1.00403	0	0	0
-0.0395508	-0.0367432	-1.00415	0	0	0
-0.0393066	-0.036499	-1.00464	0	0	0
-0.0373535	-0.0362549	-1.00439	0	0	0
-0.0394287	-0.036499	-1.00586	0	0	0
-0.0388184	-0.0351562	-1.00464	0	0	0
-0.0380859	-0.0355225	-1.00452	0	0	0
-0.0383301	-0.0354004	-1.00513	0	0	0
-0.0391846	-0.0352783	-1.00452	0	0	0
-0.0395508	-0.0352783	-1.00378	0	0	0
-0.0390625	-0.0368652	-1.00439	0	0	0
-0.0377197	-0.0356445	-1.00537	0	0	0
-0.0386963	-0.0354004	-1.00439	0	0	0
-0.0386963	-0.036499	-1.00513	0	0	0
-0.0377197	-0.0358887	-1.00476	0	0	0
-0.0383301	-0.0361328	-1.0033	0	0	0
-0.0373535	-0.0349121	-1.005	0	0	0
-0.0393066	-0.0357666	-1.00488	0	0	0
-0.0373535	-0.0350342	-1.00598	0	0	0
-0.0380859	-0.0357666	-1.00635	0	0	0
-0.0371094	-0.0354004	-1.00537	0	0	0
-0.0354004	-0.0358887	-1.0061	0	0	0
-0.0374756	-0.0357666	-1.00452	0	0	0
-0.0394287	-0.0356445	-1.00427	0	0	0
-0.0393066	-0.0369873	-1.00366	0	0	0
-0.0378418	-0.03479	-1.00513	0	0	0
-0.0384521	-0.0354004	-1.00476	0	0	0
-0.038208	-0.036377	-1.00269	0	0	0
-0.0374756	-0.036377	-1.00452	0	0	0
-0.0375977	-0.0362549	-1.00488	0	0	0
-0.0395508	-0.0362549	-1.00513	0	0	0
-0.0388184	-0.0374756	-1.00452	0	0	0
-0.038208	-0.0372314	-1.00574	0	0	0
-0.0390625	-0.0362549	-1.00562	0	0	0
-0.0380859	-0.0369873	-1.00378	0	0	0
-0.0406494	-0.0367432	-1.00427	0	0	0
-0.0410156	-0.036377	-1.00574	0	0	0
-0.0407715	-0.036499	-1.00513	0	0	0
-0.0378418	-0.0368652	-1.00488	0	0	0
-0.0371094	-0.0349121	-1.00366	0	0	0
-0.0397949	-0.0352783	-1.00415	0	0	0
-0.0402832	-0.0351562	-1.005	0	0	0
-0.0415039	-0.034668	-1.00549	0	0	0
-0.0404053	-0.0350342	-1.00476	0	0	0
-0.0411377	-0.0356445	-1.00586	0	0	0
-0.0407715	-0.0352783	-1.00464	0	0	0
-0.0410156	-0.0350342	-1.00476	0	0	0
-0.0412598	-0.0360107	-1.00476	0	0	0
-0.0404053	-0.0367432	-1.00476	0	0	0
-0.0405273	-0.0371094	-1.0033	0	0	0
-0.0402832	-0.0367432	-1.00464	0	0	0
-0.0389404	-0.0367432	-1.00439	0	0	0
-0.0391846	-0.036377	-1.00537	0	1	0
-0.0389404	-0.0354004	-1.00562	0	1	0
-0.0386963	-0.036377	-1.00476	0	1	0
-0.0393066	-0.0360107	-1.00464	0	1	0
-0.0393066	-0.036377	-1.00525	0	1	0
-0.0390625	-0.0355225	-1.00439	0	1	0
-0.0430908	-0.0355225	-1.00537	0	2	0
-0.0426025	-0.0344238	-1.00427	0	2	0
-0.0422363	-0.0362549	-1.00439	0	3	0
-0.0428467	-0.0344238	-1.00562	0	3	0
-0.0393066	-0.0369873	-1.00439	0	3	0
-0.041626	-0.0373535	-1.00378	0	4	0
-0.0426025	-0.0378418	-1.00439	0	4	0
-0.0400391	-0.0358887	-1.00525	0	5	0
-0.0361328	-0.0332031	-1.00525	0	5	0
-0.0368652	-0.0345459	-1.00403	0	5	0
-0.0383301	-0.0351562	-1.00562	0	5	0
-0.0332031	-0.0368652	-1.00696	0	5	0
-0.0319824	-0.0378418	-1.00598	0	5	0
-0.032959	-0.0367432	-1.0061	0	4	1
-0.0318604	-0.0371094	-1.00647	0	3	1
-0.024292	-0.0327148	-1.00525	0	2	2
-0.0189209	-0.034668	-1.00586	0	2	2
-0.000854492	-0.0345459	-1.00818	0	1	1
-0.0266113	-0.0338135	-1.0061	0	0	0
-0.0377197	-0.0340576	-1.00378	0	0	0
-0.0319824	-0.0349121	-1.00452	0	0	0
-0.0300293	-0.0358887	-1.005	0	0	0
-0.0354004	-0.0334473	-1.00427	0	0	0
-0.0400391	-0.0341797	-1.00427	0	0	0
-0.032959	-0.0349121	-1.00476	0	1	0
-0.0258789	-0.0343018	-1.00574	0	1	0
-0.0274658	-0.0328369	-1.00574	0	0	0
-0.0321045	-0.0350342	-1.00586	0	0	0
-0.0318604	-0.0352783	-1.00549	0	0	0
-0.0349121	-0.0338135	-1.00476	0	0	0
-0.0510254	-0.0338135	-1.00269	0	0	0
-0.0360107	-0.0369873	-1.00354	0	2	0
-0.0262451	-0.0375977	-1.00647	0	3	0
-0.0336914	-0.0377197	-1.005	0	2	0
-0.0437012	-0.038208	-1.00256	0	2	0
-0.0712891	-0.0313721	-0.998169	0	4	0
-0.0366211	-0.0351562	-1.00635	0	8	0
-0.0020752	-0.0429688	-1.01062	0	8	0
-0.00537109	-0.0397949	-1.00793	0	6	0
-0.0272217	-0.0375977	-1.00598	0	3	0
-0.0274658	-0.036499	-1.00574	0	2	0
-0.0152588	-0.036377	-1.00708	0	2	0
-0.0128174	-0.0352783	-1.00757	0	0	0
-0.0273438	-0.0360107	-1.00513	0	0	0
-0.0341797	-0.0354004	-1.00476	0	0	0
-0.0299072	-0.0362549	-1.00476	0	0	0
-0.0299072	-0.0368652	-1.00488	0	0	0
-0.0140381	-0.034668	-1.00745	0	0	0
-0.0360107	-0.0375977	-1.00342	0	-1	0
-0.0496826	-0.0388184	-1.00342	0	-1	0
-0.0438232	-0.0411377	-1.00623	0	0	1
-0.0367432	-0.0424805	-1.00598	0	0	2
-0.0349121	-0.0408936	-1.005	0	-1	3
-0.0332031	-0.0397949	-1.00427	0	-2	4
-0.0270996	-0.0371094	-1.00562	0	-2	4
-0.0264893	-0.0368652	-1.0061	0	-2	4
-0.0285645	-0.034668	-1.00513	0	-2	4
-0.0283203	-0.0303955	-1.00366	0	-2	4
-0.0239258	-0.0285645	-1.00378	0	-1	3
-0.0220947	-0.0303955	-1.00476	0	-1	3
-0.0211182	-0.0307617	-1.00549	0	-1	2
-0.0205078	-0.0308838	-1.00476	0	-1	1
-0.0187988	-0.0319824	-1.00647	0	-2	1
-0.0202637	-0.0338135	-1.00708	0	-2	0
-0.0245361	-0.0334473	-1.00476	0	-3	0
-0.0297852	-0.0355225	-1.00586	0	-3	0
-0.0335693	-0.0367432	-1.00574	0	-3	0
-0.0321045	-0.0374756	-1.00476	0	-3	0
-0.0330811	-0.0369873	-1.00391	0	-3	0
-0.0357666	-0.0371094	-1.00427	0	-3	0
-0.0350342	-0.0369873	-1.00439	0	-2	0
-0.032959	-0.0375977	-1.00342	0	-2	0
-0.0332031	-0.034668	-1.00342	0	-2	0
-0.0323486	-0.034668	-1.00342	0	-2	0
-0.0328369	-0.0344238	-1.00464	0	-2	0
-0.034668	-0.0350342	-1.005	0	-2	0
-0.0333252	-0.0343018	-1.00452	0	-2	0
-0.0335693	-0.0344238	-1.00525	0	-2	0
-0.0338135	-0.0354004	-1.00403	0	-2	0
-0.0325928	-0.0354004	-1.00513	0	-2	0
-0.0349121	-0.0356445	-1.00415	0	-3	0
-0.0362549	-0.0357666	-1.00464	0	-3	0
-0.0377197	-0.0360107	-1.00488	0	-3	0
-0.0391846	-0.0358887	-1.00464	0	-2	0
-0.0380859	-0.0371094	-1.00439	0	-2	0
-0.0380859	-0.0366211	-1.00488	0	-2	0
-0.0405273	-0.0368652	-1.00464	0	-2	0
-0.0419922	-0.038208	-1.00476	0	-1	0
-0.0421143	-0.0369873	-1.00391	0	-1	0
-0.0430908	-0.03479	-1.00476	0	0	0
-0.0438232	-0.0361328	-1.00354	0	0	0
-0.0415039	-0.0356445	-1.00366	0	0	0
-0.0374756	-0.0344238	-1.00537	0	0	0
-0.036377	-0.0355225	-1.00525	0	0	0
-0.036377	-0.0345459	-1.00513	0	0	0
-0.0360107	-0.0343018	-1.00464	0	0	0
-0.0341797	-0.0343018	-1.00586	0	0	0
-0.0334473	-0.0355225	-1.00464	0	0	0
-0.0324707	-0.0373535	-1.00439	0	0	0
-0.034668	-0.038208	-1.00574	0	0	0
-0.0356445	-0.0354004	-1.00513	0	0	0
-0.0336914	-0.0367432	-1.00549	0	-1	0
-0.0325928	-0.0374756	-1.00439	0	-1	0
-0.0345459	-0.0367432	-1.00586	0	-1	0
-0.0352783	-0.0362549	-1.00476	0	-2	0
-0.0374756	-0.0372314	-1.00525	0	-2	0
-0.0408936	-0.0368652	-1.00378	0	-2	0
-0.0405273	-0.0356445	-1.00342	0	-2	0
-0.0415039	-0.0362549	-1.00439	0	-1	0
-0.043457	-0.036499	-1.00427	0	-1	0
-0.0411377	-0.0355225	-1.00415	0	-1	0
-0.0427246	-0.0344238	-1.00488	0	0	0
-0.0437012	-0.0355225	-1.00439	0	0	0
-0.0421143	-0.036499	-1.00427	0	0	0
-0.0411377	-0.03479	-1.00476	0	0	0
-0.0390625	-0.0351562	-1.00513	0	0	0
-0.0390625	-0.0354004	-1.00513	0	0	0
-0.0372314	-0.0361328	-1.00464	0	0	0
-0.0379639	-0.0360107	-1.00439	0	0	0
-0.0394287	-0.0375977	-1.00488	0	0	0
-0.0401611	-0.0358887	-1.00464	0	1	0
-0.0389404	-0.0349121	-1.00354	0	1	0
-0.0386963	-0.0358887	-1.00549	0	1	0
-0.0372314	-0.0350342	-1.00476	0	1	0
-0.0360107	-0.0356445	-1.005	0	1	0
-0.038208	-0.0356445	-1.00598	0	1	0
-0.0372314	-0.0352783	-1.00671	0	1	0
-0.0372314	-0.0354004	-1.00562	0	1	0
-0.038208	-0.0334473	-1.00439	0	0	0
-0.0380859	-0.0339355	-1.00452	0	0	0
-0.0371094	-0.0340576	-1.00537	0	0	0
-0.0378418	-0.036377	-1.00439	0	0	0
-0.038208	-0.0351562	-1.00464	0	0	0
-0.0383301	-0.0375977	-1.00391	0	0	0
-0.0371094	-0.0369873	-1.00439	0	0	0
-0.0372314	-0.0373535	-1.00513	0	0	0
-0.0362549	-0.0344238	-1.00598	0	0	0
-0.0341797	-0.0357666	-1.00586	0	0	0
-0.0351562	-0.0362549	-1.00635	0	0	0
-0.0397949	-0.0361328	-1.00513	0	0	0
-0.0373535	-0.0354004	-1.00476	0	0	0
-0.036377	-0.0351562	-1.005	0	0	0
-0.0371094	-0.0354004	-1.00513	0	0	0
-0.0405273	-0.0358887	-1.00476	0	0	0
-0.0389404	-0.0351562	-1.00513	0	0	0
-0.0372314	-0.0354004	-1.00537	0	0	0
-0.0366211	-0.0349121	-1.00635	0	0	0
-0.0378418	-0.0373535	-1.00562	0	0	0
-0.0351562	-0.0362549	-1.00537	0	0	0
-0.0344238	-0.0358887	-1.00513	0	0	0
-0.034668	-0.0361328	-1.00549	0	0	0
-0.0328369	-0.0357666	-1.00562	0	0	0
-0.0335693	-0.0360107	-1.00378	0	-1	0
-0.0386963	-0.0351562	-1.00403	0	-1	0
-0.041748	-0.03479	-1.00427	0	-1	0
-0.0391846	-0.0345459	-1.00488	0	0	0
-0.0379639	-0.0361328	-1.005	0	0	0
-0.0405273	-0.0357666	-1.00464	0	0	0
-0.0404053	-0.0366211	-1.00439	0	0	0
-0.0372314	-0.036499	-1.00427	0	0	0
-0.0333252	-0.0358887	-1.00476	0	0	0
-0.0336914	-0.0362549	-1.00574	0	0	0
-0.0379639	-0.0361328	-1.00537	0	0	0
-0.039917	-0.0358887	-1.0033	0	0	0
-0.0368652	-0.0362549	-1.00464	0	0	0
-0.0361328	-0.03479	-1.0061	0	0	0
-0.0400391	-0.03479	-1.00317	0	0	0
-0.0384521	-0.0336914	-1.00098	0	0	0
-0.0185547	-0.032959	-1.00403	0	2	-1
-0.0144043	-0.0351562	-1.00623	0	3	-3
-0.0291748	-0.0357666	-1.00586	0	2	-4
-0.0419922	-0.0369873	-1.00415	0	1	-4
-0.0362549	-0.0369873	-1.00732	0	1	-4
-0.0283203	-0.0356445	-1.00793	0	0	-4
-0.0303955	-0.0350342	-1.00623	0	-1	-3
-0.0328369	-0.0351562	-1.00562	0	-2	-3
-0.0336914	-0.0367432	-1.00598	0	-3	-3
-0.0396729	-0.0361328	-1.00537	0	-4	-2
-0.0461426	-0.0351562	-1.00354	0	-4	-2
-0.0541992	-0.0343018	-1.00244	0	-4	-2
-0.0534668	-0.0344238	-1.00391	0	-3	-2
-0.0491943	-0.038208	-1.00513	0	-1	-2
-0.0410156	-0.0449219	-1.00439	0	-1	-3
-0.0303955	-0.0561523	-1.00464	0	0	-5
-0.0231934	-0.0727539	-1.00488	0	0	-7
-0.0195312	-0.0963135	-1.00562	0	0	-9
-0.0152588	-0.119141	-1.01477	0	0	-12
-0.019165	-0.139282	-1.05103	0	-1	-14
-0.0371094	-0.143433	-1.0719	-3	-3	-16
-0.0571289	-0.127441	-1.07959	-7	-5	-17
-0.0648193	-0.0853271	-1.09814	-12	-7	-18
-0.0810547	-0.0467529	-1.104	-17	-10	-18
-0.104736	-0.012207	-1.10437	-23	-13	-18
-0.116455	0.0151367	-1.11169	-30	-15	-17
-0.109985	0.0352783	-1.12378	-36	-15	-16
-0.0982666	0.0435791	-1.12817	-44	-16	-14
-0.0959473	0.0446777	-1.12488	-52	-16	-13
-0.0894775	0.036377	-1.11975	-60	-15	-12
-0.0635986	0.0228271	-1.11084	-67	-12	-11
-0.0291748	0.00427246	-1.09985	-75	-9	-10
0.00671387	-0.00769043	-1.09253	-81	-4	-9
0.0366211	-0.00305176	-1.09338	-87	0	-7
0.0599365	0.013916	-1.0946	-93	5	-3
0.0797119	0.0371094	-1.09265	-100	10	1
0.0374756	0.0977783	-1.23096	-106	16	7
0.142822	0.111694	-1.21692	-103	37	14
0.123657	0.137695	-1.0929	-104	35	21
0.0567627	0.167358	-1.16016	-110	32	27
0.0563965	0.18457	-1.26343	-114	39	32
0.0107422	0.176514	-1.13403	-115	39	35
-0.0181885	0.191895	-1.11096	-119	45	37
-0.0352783	0.188965	-1.11023	-125	49	39
-0.0561523	0.187012	-1.10608	-130	49	38
-0.0827637	0.187012	-1.10217	-134	49	36
-0.0994873	0.1875	-1.08118	-138	51	32
-0.0949707	0.194702	-1.05212	-142	51	27
-0.0513916	0.220215	-1.07495	-147	48	22
-0.0267334	0.232666	-1.10144	-151	42	17
-0.0465088	0.240479	-1.1012	-154	39	14
0.00488281	0.23999	-1.0802	-157	41	11
0.0283203	0.266846	-1.03662	-162	37	9
-0.00219727	0.309937	-0.986694	-168	30	6
-0.0267334	0.351074	-0.993164	-174	26	3
-0.0302734	0.37146	-1.01343	-178	23	0
-0.0206299	0.374146	-1.00696	-181	22	-4
0.0200195	0.36377	-1.04053	-184	25	-7
0.0501709	0.367065	-1.04175	-187	24	-9
0.0783691	0.373535	-1.02502	-189	21	-10
0.105225	0.380859	-0.984009	-191	19	-11
0.130737	0.394043	-0.961426	-193	19	-10
0.139038	0.419434	-0.925903	-196	17	-9
0.128296	0.447754	-0.883057	-199	14	-6
0.106323	0.471313	-0.848022	-202	13	-4
0.09021	0.495483	-0.830933	-205	13	-1
0.0710449	0.51355	-0.828003	-209	12	0
0.039917	0.522095	-0.799438	-213	13	1
0.0360107	0.526001	-0.81311	-216	17	2
0.0246582	0.536987	-0.805054	-220	19	2
0.0239258	0.547363	-0.811768	-224	20	1
0.0217285	0.563477	-0.811646	-228	17	-1
0.0250244	0.566895	-0.804077	-231	14	-3
0.0333252	0.565308	-0.793823	-233	11	-6
0.0374756	0.567261	-0.776123	-234	8	-9
0.0333252	0.566406	-0.755737	-235	3	-11
0.0253906	0.565552	-0.742188	-236	1	-13
0.0152588	0.5625	-0.728394	-235	0	-15
0.00891113	0.562012	-0.715332	-234	0	-17
0.010376	0.563721	-0.704956	-233	0	-19
0.0186768	0.567505	-0.695435	-232	0	-20
0.0308838	0.572388	-0.680054	-230	-1	-20
0.0423584	0.57312	-0.664673	-228	-1	-20
0.0483398	0.577759	-0.646362	-225	-1	-19
0.0447998	0.58374	-0.623047	-223	-2	-18
0.0296631	0.586792	-0.595947	-220	-4	-17
0.0172119	0.589722	-0.572144	-218	-6	-16
0.0113525	0.596558	-0.557983	-216	-9	-16
0.00341797	0.608276	-0.557373	-215	-12	-16
0.00219727	0.618042	-0.553711	-214	-14	-17
-0.00219727	0.62561	-0.544556	-213	-15	-17
-0.00646973	0.632812	-0.529785	-211	-16	-17
-0.00634766	0.641479	-0.509521	-210	-15	-18
-0.00695801	0.650024	-0.493042	-209	-15	-18
-0.0045166	0.658691	-0.479004	-208	-15	-18
-0.000732422	0.668945	-0.467285	-207	-14	-18
-0.000488281	0.680542	-0.458374	-205	-14	-17
0.0020752	0.682373	-0.446167	-204	-13	-16
-0.000976562	0.692017	-0.431885	-201	-12	-15
-0.00939941	0.712158	-0.40686	-199	-10	-14
-0.0167236	0.72876	-0.384155	-196	-9	-12
-0.0252686	0.744019	-0.362061	-194	-8	-12
-0.0534668	0.767456	-0.323486	-192	-7	-11
-0.0500488	0.785767	-0.309204	-190	-5	-9
-0.0349121	0.78772	-0.310913	-187	-3	-8
-0.0236816	0.78894	-0.309937	-186	-4	-7
-0.0151367	0.793457	-0.306274	-185	-6	-7
-0.00976562	0.803101	-0.299072	-184	-6	-7
-0.000244141	0.822144	-0.284546	-182	-6	-7
0.00915527	0.840942	-0.272339	-181	-5	-7
0.0144043	0.859497	-0.254028	-179	-4	-6
0.0118408	0.877686	-0.234619	-177	-4	-5
0.00524902	0.900513	-0.218384	-174	-5	-4
-0.00292969	0.922485	-0.203979	-172	-5	-3
-0.00976562	0.945923	-0.192627	-170	-6	-1
-0.0155029	0.961182	-0.182251	-167	-6	0
-0.0140381	0.965454	-0.179688	-163	-6	1
-0.0135498	0.964355	-0.176025	-159	-5	2
-0.00830078	0.958252	-0.177246	-155	-4	4
-0.00915527	0.952759	-0.175415	-151	-4	5
-0.0130615	0.949219	-0.1698	-145	-3	7
-0.020752	0.948608	-0.161621	-139	-2	9
-0.0294189	0.953125	-0.151611	-133	0	10
-0.0380859	0.958252	-0.143799	-126	1	11
-0.0512695	0.967896	-0.133545	-119	2	12
-0.0529785	0.978271	-0.125488	-111	4	13
-0.0532227	0.984497	-0.123291	-104	6	13
-0.0494385	0.986938	-0.126831	-97	7	13
-0.0422363	0.988159	-0.131104	-89	8	13
-0.03125	0.982422	-0.139404	-82	8	12
-0.0179443	0.974609	-0.147461	-74	7	12
-0.00842285	0.965454	-0.153442	-66	7	12
-0.00488281	0.958496	-0.152588	-58	6	11
-0.00854492	0.957642	-0.144165	-50	6	11
-0.017334	0.957642	-0.129517	-42	6	11
-0.0255127	0.964233	-0.112915	-35	5	11
-0.0362549	0.96814	-0.0908203	-28	5	10
-0.0462646	0.968384	-0.0698242	-22	5	8
-0.0527344	0.964966	-0.0535889	-17	5	6
-0.0507812	0.954346	-0.0458984	-13	4	4
-0.0412598	0.941772	-0.0452881	-10	3	2
-0.0288086	0.928223	-0.0473633	-7	3	0
-0.0209961	0.920898	-0.0499268	-4	2	-2
-0.0152588	0.91272	-0.0522461	-1	0	-4
-0.00817871	0.910034	-0.0531006	0	0	-6
-0.00219727	0.911743	-0.0498047	3	-1	-7
-0.0012207	0.921143	-0.0415039	5	-2	-9
-0.000610352	0.930786	-0.0283203	7	-2	-10
-0.00341797	0.948853	-0.0153809	8	-2	-11
-0.0065918	0.965088	-0.00305176	9	-2	-12
-0.0115967	0.9823	0.00927734	10	-2	-14
0.045166	1.50183	0.200073	7	-7	-12
0.189453	1.68127	0.335083	-1	-8	-9
0.076416	1.15637	0.219971	-3	-6	-9
0.0563965	0.87854	0.108521	-4	-6	-8
0.130127	0.942139	0.00878906	-4	0	-6
0.152954	1.0188	-0.0250244	-3	5	-3
0.0998535	0.980103	-0.0161133	-2	7	-2
0.0606689	0.966797	-0.0159912	-2	10	-3
0.0339355	0.985962	-0.0107422	-2	11	-4
0.0175781	0.993164	-0.0108643	-2	8	-5
0.00488281	0.983643	-0.0187988	-2	5	-6
0.00292969	0.982422	-0.0285645	-2	2	-7
0.00732422	0.986328	-0.0284424	-3	1	-7
0.013916	0.990845	-0.0219727	-3	2	-7
0.0147705	0.981079	-0.0274658	-4	3	-8
0.0137939	0.983521	-0.0292969	-5	3	-8
0.012207	0.982422	-0.0291748	-6	3	-9
0.00830078	0.987305	-0.024292	-6	1	-10
0.00354004	0.984985	-0.019043	-7	0	-10
-0.0012207	0.98291	-0.0123291	-8	-1	-11
-0.00610352	0.984863	-0.00524902	-8	-2	-11
-0.0118408	0.982788	-0.000244141	-8	-2	-11
-0.0183105	0.988892	0.0012207	-7	-2	-11
-0.0214844	0.983154	0.00549316	-7	-3	-10
-0.0228271	0.984375	0.00817871	-6	-2	-10
-0.0249023	0.984131	0.0078125	-6	-2	-9
-0.0253906	0.98584	0.00793457	-5	-1	-9
-0.0269775	0.985107	0.00817871	-4	-2	-8
-0.0238037	0.984619	0.0102539	-4	-2	-8
-0.0230713	0.984009	0.0112305	-3	-3	-7
-0.0245361	0.984131	0.0108643	-2	-3	-7
-0.026001	0.986084	0.0100098	-2	-4	-7
-0.0291748	0.986938	0.0112305	-1	-5	-6
-0.0308838	0.988281	0.0129395	-1	-6	-6
-0.0339355	0.985718	0.0157471	0	-7	-5
-0.0345459	0.984131	0.017334	0	-7	-5
-0.0323486	0.983887	0.0137939	1	-7	-4
-0.0305176	0.983276	0.0147705	2	-6	-3
-0.0274658	0.983398	0.0135498	3	-4	-3
-0.0255127	0.984741	0.00805664	3	-3	-3
-0.0195312	0.98584	0.0057373	4	-2	-2
-0.0131836	0.984863	0.00537109	5	-2	-2
-0.00671387	0.983154	0.00158691	5	-1	-2
-0.00317383	0.986206	-0.0045166	5	0	-3
-0.00341797	0.985352	-0.00695801	6	0	-4
-0.00280762	0.982544	-0.00891113	6	0	-4
-0.00402832	0.983398	-0.0108643	5	0	-5
-0.00305176	0.984619	-0.013916	5	0	-6
-0.00402832	0.985474	-0.0144043	5	0	-7
-0.0112305	0.984619	-0.0150146	5	-1	-8
-0.0153809	0.984009	-0.0152588	4	-1	-9
-0.019043	0.986694	-0.0135498	4	-2	-9
-0.032959	0.990845	-0.0145264	4	-1	-9
-0.0429688	0.989136	-0.012085	4	-1	-9
-0.0450439	0.989624	-0.00683594	4	-2	-8
-0.0367432	0.986816	-0.00219727	5	-4	-7
-0.027832	0.986084	-0.00524902	5	-5	-7
-0.020752	0.987061	-0.0118408	5	-5	-7
-0.0181885	0.985962	-0.0184326	5	-3	-7
-0.0222168	0.985352	-0.0214844	5	-2	-8
-0.0153809	0.985229	-0.0200195	5	-2	-8
-0.0275879	0.985962	-0.0367432	4	0	-9
-0.0358887	0.985718	-0.0250244	3	1	-9
-0.0439453	0.987427	-0.00952148	3	0	-9
-0.0474854	0.984131	-0.00878906	3	-1	-9
-0.0389404	0.985107	-0.0159912	4	-2	-8
-0.0412598	0.98584	-0.0170898	4	-3	-8
-0.0391846	0.987305	-0.0162354	4	-2	-8
-0.0419922	0.987305	-0.0144043	4	-1	-8
-0.0527344	0.986816	-0.0133057	4	-1	-7
-0.057373	0.985107	-0.0100098	4	-1	-7
-0.0483398	0.983643	-0.00622559	5	-2	-6
-0.036499	0.983887	-0.00817871	5	-4	-5
-0.0252686	0.986694	-0.012085	6	-5	-6
-0.0179443	0.987915	-0.0175781	6	-5	-6
-0.0174561	0.989014	-0.019165	6	-5	-7
-0.0164795	0.990723	-0.0230713	6	-3	-8
0.012085	0.98938	0.0123291	7	-4	-10
-0.0318604	0.983032	0.0133057	9	-12	-12
-0.0855713	0.980469	-0.0065918	11	-15	-12
-0.0963135	0.979126	-0.0270996	11	-9	-11
-0.0834961	0.981323	-0.0341797	10	-4	-8
-0.0649414	0.985107	-0.0319824	10	-4	-7
-0.0505371	0.986572	-0.0268555	10	-6	-6
-0.0657959	0.985107	-0.00415039	10	-7	-6
-0.0343018	0.989136	-0.0229492	10	-5	-6
-0.0395508	0.990845	-0.0672607	10	-4	-6
-0.0167236	0.985474	-0.124268	8	-6	-6
-0.0327148	0.97583	-0.133789	5	-12	-6
-0.0838623	0.97876	-0.0849609	1	-15	-5
-0.105225	0.98584	-0.00915527	0	-11	-5
-0.0977783	0.985107	0.0194092	0	-5	-5
-0.0826416	0.981445	-0.0118408	0	-2	-4
-0.067627	0.97644	-0.0645752	1	-2	-2
-0.0708008	0.978638	-0.0585938	0	-3	-1
-0.0749512	0.983765	-0.024292	0	-2	0
-0.0601807	0.984619	-0.0151367	0	0	0
-0.0480957	0.985596	-0.0294189	0	0	0
-0.0458984	0.981812	-0.0441895	0	0	0
-0.0559082	0.984131	-0.039917	0	-1	0
-0.0552979	0.985229	-0.026123	0	0	0
-0.0489502	0.984009	-0.0283203	0	0	-1
-0.0554199	0.9823	-0.0297852	0	-1	0
-0.065918	0.979614	-0.0316162	0	-2	0
-0.0777588	0.980103	-0.0303955	0	-2	0
-0.0795898	0.981567	-0.029541	0	-1	0
-0.0788574	0.981934	-0.0250244	0	-1	1
-0.0697021	0.980469	-0.0333252	0	-1	2
-0.0695801	0.98291	-0.0332031	0	-1	2
-0.0665283	0.98291	-0.0303955	0	-1	3
-0.0621338	0.982178	-0.0299072	0	-1	3
-0.0640869	0.982666	-0.0333252	0	-2	4
-0.0686035	0.982666	-0.0318604	0	-2	4
-0.0686035	0.98291	-0.032959	0	-3	5
-0.0688477	0.981934	-0.0336914	0	-3	6
-0.0734863	0.981445	-0.0310059	0	-4	7
-0.0732422	0.97998	-0.0318604	0	-4	8
-0.0650635	0.980469	-0.0340576	0	-4	9
-0.0526123	0.985352	-0.0333252	0	-4	9
-0.0395508	0.986816	-0.0345459	0	-4	10
-0.0245361	0.990356	-0.0389404	0	-4	9
0.0263672	0.989868	-0.0646973	-1	-4	8
0.0227051	0.984375	-0.0681152	-3	-5	6
-0.0360107	0.987427	-0.0283203	-4	-5	3
-0.0748291	0.988525	0.0108643	-4	-2	2
-0.0689697	0.985352	-0.0078125	-3	-1	3
-0.0422363	0.983643	-0.057373	-2	-1	4
-0.046875	0.984009	-0.072876	-3	-2	4
-0.0679932	0.983032	-0.0588379	-5	-2	4
-0.0778809	0.983887	-0.045166	-6	-1	5
-0.0665283	0.984009	-0.0407715	-6	-1	6
-0.0489502	0.986206	-0.0415039	-7	-1	7
-0.0369873	0.987305	-0.0327148	-7	-1	8
-0.0273438	0.988159	-0.0177002	-8	-2	7
-0.0186768	0.986816	0.00012207	-7	-2	7
-0.0113525	0.988892	0.00915527	-6	-3	6
-0.00927734	0.986816	0.0100098	-5	-2	5
-0.0130615	0.985352	0.00634766	-4	0	3
-0.0172119	0.984985	-0.00585938	-3	2	2
-0.0219727	0.987915	-0.0170898	-2	5	1
-0.0209961	0.986816	-0.0236816	-2	8	1
-0.0153809	0.986206	-0.0180664	-2	8	0
-0.0147705	0.985352	-0.00512695	-2	6	0
-0.0223389	0.985352	0.0098877	-1	3	-1
-0.0288086	0.984741	0.0217285	0	2	-2
-0.0366211	0.983521	0.0302734	1	0	-2
-0.039917	0.983398	0.0333252	3	-1	-2
-0.036499	0.984375	0.0310059	5	-2	-2
-0.026123	0.988281	0.0129395	8	-4	-2
-0.00219727	0.990845	-0.0299072	9	-5	-3
0.129395	0.988647	-0.268311	9	-8	-4
-0.0947266	0.988281	-0.0488281	6	-43	-5
-0.163452	0.977661	0.0750732	3	-36	-5
-0.0825195	0.98877	0.0108643	4	-7	-3
-0.0172119	0.983765	-0.0482178	5	-10	-1
-0.0291748	0.979492	-0.0769043	4	-18	-1
-0.0559082	0.982666	-0.0722656	2	-17	-2
-0.0762939	0.982544	-0.0404053	0	-9	-2
-0.0821533	0.983887	-0.0115967	0	-6	-1
-0.0723877	0.983521	-0.0140381	0	-7	0
-0.045166	0.984985	-0.0422363	0	-5	0
-0.0324707	0.983276	-0.0583496	0	-2	0
-0.0466309	0.985718	-0.0356445	-1	-1	0
-0.0478516	0.985229	-0.00793457	-1	0	0
-0.0395508	0.984863	-0.00634766	0	0	0
-0.0213623	0.985474	-0.0238037	0	0	0
-0.0169678	0.984131	-0.0344238	0	0	0
-0.0354004	0.982788	-0.0216064	0	0	0
-0.0494385	0.983521	-0.00854492	0	0	-1
-0.0491943	0.984131	-0.00549316	1	0	0
-0.0488281	0.985229	-0.0234375	1	0	0
-0.0474854	0.985718	-0.0449219	1	0	0
-0.0559082	0.983032	-0.0494385	1	0	0
-0.0644531	0.984741	-0.0380859	0	0	0
-0.0606689	0.985474	-0.0235596	0	0	0
-0.0428467	0.985107	-0.0153809	0	0	1
-0.0272217	0.987305	-0.0181885	0	0	1
-0.0194092	0.985107	-0.0112305	0	0	0
-0.0272217	0.98584	-0.0124512	0	1	0
-0.0341797	0.986694	-0.0152588	0	0	-1
-0.0422363	0.98584	-0.022583	1	0	-1
-0.0408936	0.985352	-0.032959	1	0	-1
-0.0415039	0.983765	-0.0393066	1	1	-1
-0.0477295	0.983276	-0.0384521	1	1	-1
-0.052002	0.985474	-0.0308838	0	0	-1
-0.0495605	0.98645	-0.0294189	0	0	0
-0.043457	0.984619	-0.0297852	0	0	0
-0.0412598	0.984009	-0.0286865	0	0	0
-0.0432129	0.983398	-0.0196533	0	0	0
-0.045166	0.985718	-0.0233154	0	0	0
-0.0476074	0.985107	-0.0284424	0	0	0
-0.0531006	0.983887	-0.0281982	0	0	0
-0.0562744	0.98291	-0.0336914	0	0	0
-0.0541992	0.984863	-0.0319824	0	0	0
-0.0477295	0.984009	-0.0253906	0	0	0
-0.0354004	0.987183	-0.0169678	0	0	0
-0.027832	0.987061	-0.00793457	0	0	0
-0.0219727	0.987915	-0.000244141	0	0	0
-0.0185547	0.987671	0.00012207	1	0	-1
-0.0158691	0.987183	-0.00720215	2	0	-2
-0.0192871	0.988525	-0.0109863	3	0	-3
-0.0266113	0.988647	-0.0150146	4	0	-4
-0.0383301	0.987305	-0.0241699	5	1	-5
-0.057251	0.984741	-0.0404053	5	1	-5
-0.0836182	0.97998	-0.074707	5	1	-5
-0.0916748	0.973145	-0.102783	3	1	-4
-0.0906982	0.977173	-0.0578613	0	0	-2
-0.0826416	0.985352	-0.00146484	0	0	0
-0.067627	0.986328	-0.00744629	0	0	0
-0.0452881	0.9823	-0.0444336	0	0	1
-0.0223389	0.9823	-0.0533447	0	1	1
-0.0240479	0.986572	-0.0266113	0	1	0
-0.0366211	0.988281	-0.00390625	0	1	0
-0.0419922	0.986572	-0.0212402	0	2	-1
-0.0405273	0.984741	-0.0449219	0	2	-1
-0.0429688	0.983521	-0.039917	0	1	-1
-0.0421143	0.985962	-0.0223389	0	1	-1
-0.0426025	0.986694	-0.0231934	0	1	-1
-0.0462646	0.984741	-0.0332031	0	1	-1
-0.0484619	0.984375	-0.036499	0	1	-1
-0.0552979	0.985229	-0.0307617	0	0	-1
-0.0596924	0.98291	-0.0290527	0	0	-1
-0.0644531	0.980713	-0.0313721	0	1	-1
-0.0690918	0.981689	-0.0352783	0	1	0
-0.0717773	0.97998	-0.0324707	0	1	0
-0.0700684	0.982178	-0.0296631	0	1	0
-0.0695801	0.982544	-0.0285645	0	1	1
-0.0631104	0.981689	-0.0308838	0	1	2
-0.057251	0.983154	-0.0333252	0	1	3
-0.0493164	0.98645	-0.0290527	0	0	3
-0.0202637	0.989014	-0.0294189	0	1	3
0.00305176	0.989746	-0.0286865	0	2	2
-0.0101318	0.989258	-0.0172119	0	3	0
-0.0443115	0.986694	-0.0164795	0	1	0
-0.0626221	0.982788	-0.0371094	0	1	0
-0.0627441	0.982544	-0.0466309	0	0	0
-0.0484619	0.984131	-0.0357666	0	0	0
-0.0411377	0.985474	-0.0220947	0	0	0
-0.0378418	0.985596	-0.0240479	0	1	0
-0.0391846	0.984131	-0.0324707	0	1	0
-0.0478516	0.984375	-0.0323486	0	1	0
-0.0554199	0.983887	-0.0294189	0	0	0
-0.0576172	0.983276	-0.0290527	0	0	0
-0.0529785	0.983887	-0.0310059	0	0	0
-0.046875	0.984985	-0.0322266	0	0	0
-0.0430908	0.985107	-0.0273438	0	0	0
-0.0422363	0.983643	-0.0245361	0	0	0
-0.0440674	0.985107	-0.0238037	0	0	0
-0.0458984	0.983887	-0.0296631	0	0	0
-0.050293	0.981812	-0.0303955	0	0	0
-0.0489502	0.984741	-0.0283203	0	0	0
-0.0447998	0.985474	-0.0285645	0	0	0
-0.0418701	0.985107	-0.0303955	0	0	0
-0.0432129	0.986694	-0.0307617	0	0	0
-0.0495605	0.984985	-0.0300293	0	0	0
-0.0419922	0.983887	-0.0328369	0	0	0
-0.0405273	0.984741	-0.0321045	0	0	0
-0.0393066	0.985474	-0.02771	0	0	0
-0.038208	0.985107	-0.0302734	0	0	-1
-0.036499	0.985596	-0.0300293	0	0	-1
-0.036377	0.985474	-0.0286865	0	0	-1
-0.0336914	0.986084	-0.027832	0	0	-2
-0.0344238	0.984619	-0.0291748	0	0	-3
-0.032959	0.990479	-0.0281982	0	0	-3
-0.0394287	0.984985	-0.0136719	0	-1	-4
-0.0463867	0.983398	-0.0341797	1	-1	-4
-0.0516357	0.982544	-0.043335	1	-1	-4
-0.0598145	0.981445	-0.038208	0	-1	-4
-0.0698242	0.981934	-0.0294189	0	0	-3
-0.0766602	0.982178	-0.0275879	0	0	-2
-0.0812988	0.980957	-0.0322266	0	0	-1
-0.0834961	0.97937	-0.0358887	0	0	0
-0.0836182	0.978638	-0.0354004	0	0	0
-0.0788574	0.982056	-0.0344238	0	0	2
-0.072998	0.981445	-0.0323486	0	0	3
-0.065918	0.981323	-0.0322266	0	0	4
-0.0576172	0.983521	-0.0323486	0	0	4
-0.0491943	0.983643	-0.0323486	0	0	5
-0.0447998	0.985596	-0.0297852	0	0	5
-0.039917	0.986938	-0.0283203	0	0	4
-0.0355225	0.986572	-0.0280762	0	0	4
-0.0158691	0.98877	-0.0323486	0	0	4
0.00891113	0.989258	-0.0336914	0	0	2
0.000366211	0.990356	-0.0177002	0	0	0
-0.0345459	0.989746	-0.00305176	0	0	-1
-0.0563965	0.983643	-0.0255127	0	0	-1
-0.0627441	0.978638	-0.0557861	1	0	-1
-0.0638428	0.980103	-0.0490723	0	0	0
-0.0629883	0.984985	-0.0197754	0	0	0
-0.0524902	0.986694	-0.0140381	0	0	0
-0.0335693	0.986328	-0.0340576	0	0	1
-0.0238037	0.985718	-0.0419922	0	0	0
-0.0355225	0.986938	-0.0255127	0	0	0
-0.0537109	0.985229	-0.0158691	0	0	0
-0.0588379	0.983643	-0.0313721	0	0	0
-0.0588379	0.981689	-0.0427246	0	0	0
-0.055542	0.984497	-0.0336914	0	0	0
-0.0476074	0.985229	-0.0217285	0	0	0
-0.0377197	0.987549	-0.0231934	0	0	0
-0.0317383	0.985962	-0.0314941	0	0	0
-0.0372314	0.986938	-0.0332031	0	0	0
-0.0455322	0.985962	-0.0289307	0	0	0
-0.0524902	0.983521	-0.0281982	0	0	0
-0.0533447	0.983154	-0.0324707	0	0	0
-0.0535889	0.98291	-0.0368652	0	0	0
-0.0543213	0.982788	-0.0332031	0	0	0
-0.0531006	0.983643	-0.0290527	0	0	0
-0.0507812	0.984131	-0.0290527	0	0	0
-0.0463867	0.984619	-0.032959	0	0	0
-0.0424805	0.983398	-0.0327148	0	0	0
-0.0402832	0.985962	-0.0275879	0	0	0
-0.0419922	0.984741	-0.0247803	0	0	0
-0.0440674	0.984131	-0.0286865	0	0	0
-0.0466309	0.985474	-0.0327148	0	0	0
-0.0493164	0.984009	-0.0314941	0	0	0
-0.0522461	0.983398	-0.0274658	0	0	0
-0.0526123	0.984985	-0.0280762	0	0	0
-0.0518799	0.984741	-0.0301514	0	0	0
-0.0479736	0.984131	-0.0310059	0	0	0
-0.0443115	0.984619	-0.0290527	0	0	0
-0.0411377	0.984131	-0.0280762	0	0	0
-0.0412598	0.987061	-0.0290527	0	0	0
-0.0432129	0.984131	-0.0311279	0	0	0
-0.0467529	0.983032	-0.0316162	0	0	0
-0.0491943	0.985718	-0.0310059	0	0	0
-0.0510254	0.985962	-0.0319824	0	0	0
-0.0499268	0.984619	-0.0318604	0	0	0
-0.0494385	0.985107	-0.0296631	0	0	0
-0.0447998	0.984863	-0.0310059	0	0	0
-0.0415039	0.984741	-0.0308838	0	0	0
-0.0418701	0.985962	-0.0302734	0	-1	0
-0.0424805	0.985229	-0.0305176	0	-1	0
-0.0445557	0.985718	-0.0302734	0	-2	0
-0.0477295	0.983398	-0.0300293	0	-2	0
-0.0496826	0.985474	-0.0285645	0	-2	0
-0.052124	0.985229	-0.0290527	0	-2	0
-0.0533447	0.984375	-0.0305176	0	-1	0
-0.0507812	0.984131	-0.0324707	0	-2	0
-0.0524902	0.987183	-0.03125	0	-2	0
-0.0487061	0.985107	-0.0297852	0	-1	0
-0.0467529	0.984009	-0.0285645	0	-1	0
-0.0465088	0.984863	-0.0299072	0	0	0
-0.0484619	0.983887	-0.0318604	0	0	0
-0.0505371	0.984009	-0.0321045	0	0	0
-0.0488281	0.984741	-0.0291748	0	0	0
-0.0477295	0.984131	-0.0294189	0	0	0
-0.0456543	0.985718	-0.0286865	0	0	0
-0.0447998	0.985229	-0.0275879	0	0	0
-0.0450439	0.985596	-0.0281982	0	0	0
-0.0466309	0.984863	-0.0266113	0	0	0
-0.0460205	0.984131	-0.0281982	0	0	0
-0.0471191	0.985352	-0.0310059	0	0	0
-0.0483398	0.983887	-0.0301514	0	0	0
-0.0479736	0.983643	-0.0279541	0	0	0
-0.0471191	0.984131	-0.0297852	0	0	0
-0.0476074	0.984009	-0.0296631	0	0	0
-0.0466309	0.983154	-0.0316162	0	0	0
-0.0500488	0.985352	-0.0313721	0	0	0
-0.0495605	0.983765	-0.0311279	0	0	0
-0.0487061	0.984009	-0.0313721	0	0	0
-0.0472412	0.985474	-0.0313721	0	0	0
-0.0456543	0.985718	-0.0299072	0	0	0
-0.045166	0.983765	-0.0288086	0	0	0
-0.0460205	0.984497	-0.0297852	0	0	0
-0.0461426	0.983521	-0.0301514	0	0	0
-0.0454102	0.983398	-0.0311279	0	0	0
-0.0456543	0.984009	-0.0297852	0	0	0
-0.0455322	0.983765	-0.0275879	0	0	0
-0.0460205	0.983154	-0.0273438	0	0	0
-0.0478516	0.984497	-0.0280762	0	0	0
-0.0483398	0.983887	-0.0285645	0	0	0
-0.0488281	0.985352	-0.0296631	0	0	0
-0.0493164	0.983887	-0.0300293	0	0	0
-0.0476074	0.984131	-0.0306396	0	0	0
-0.046875	0.984985	-0.029541	0	0	0
-0.0476074	0.985718	-0.0306396	0	0	0
-0.0489502	0.985352	-0.0306396	0	0	0
-0.0474854	0.985229	-0.0307617	0	0	0
-0.0471191	0.983643	-0.0311279	0	0	0
-0.0478516	0.985474	-0.0305176	0	0	0
-0.0467529	0.984985	-0.0303955	0	0	0
-0.0466309	0.984009	-0.0303955	0	0	0
-0.0457764	0.984619	-0.0297852	0	0	0
-0.0457764	0.984741	-0.0308838	0	0	0
-0.0454102	0.986084	-0.0296631	0	0	0
-0.046875	0.985962	-0.0300293	0	0	0
-0.0471191	0.984497	-0.0301514	0	0	0
-0.0482178	0.984497	-0.0294189	0	0	0
-0.0476074	0.984375	-0.0294189	0	0	0
-0.0482178	0.984741	-0.0292969	0	0	0
-0.0491943	0.984985	-0.0300293	0	0	0
-0.0474854	0.984009	-0.0307617	0	0	0
-0.0462646	0.983765	-0.0303955	0	0	0
-0.0472412	0.985718	-0.0296631	0	0	0
-0.046875	0.985474	-0.0294189	0	0	0
-0.0473633	0.984131	-0.0311279	0	0	0
-0.0462646	0.985596	-0.0303955	0	0	0
-0.0449219	0.985474	-0.0299072	0	0	0
-0.0473633	0.985352	-0.0301514	0	0	0
-0.0465088	0.985718	-0.0307617	0	0	0
-0.0460205	0.985229	-0.0302734	0	0	0
-0.0465088	0.983154	-0.0297852	0	0	0
-0.0472412	0.983398	-0.0291748	0	0	0
-0.0465088	0.983032	-0.0281982	0	0	0
-0.0467529	0.984131	-0.0290527	0	0	0
-0.0474854	0.985718	-0.0297852	0	0	0
-0.0463867	0.983887	-0.0292969	0	0	0
-0.0472412	0.985596	-0.0303955	0	0	0
-0.0479736	0.984131	-0.0308838	0	0	0
-0.0471191	0.985229	-0.0311279	0	0	0
-0.0478516	0.984131	-0.0300293	0	0	0
-0.0473633	0.984131	-0.0303955	0	0	0
-0.0474854	0.983276	-0.0299072	0	0	0
-0.0467529	0.983398	-0.0305176	0	0	0
-0.0476074	0.983887	-0.029541	0	0	0
-0.0483398	0.984131	-0.029541	0	0	0
-0.0471191	0.984131	-0.0301514	0	0	0
-0.0465088	0.984131	-0.0292969	0	0	0
-0.0457764	0.983521	-0.0305176	0	0	0
-0.0465088	0.984009	-0.0288086	0	0	0
-0.046875	0.984863	-0.0297852	0	0	0
-0.0490723	0.983643	-0.0310059	0	0	0
-0.0489502	0.983154	-0.0308838	0	0	0
-0.0490723	0.984619	-0.0290527	0	0	0
-0.0493164	0.984985	-0.0301514	0	0	0
-0.0471191	0.983032	-0.0310059	0	0	0
-0.0465088	0.984009	-0.03125	0	0	0
-0.048584	0.984497	-0.0303955	0	0	0
-0.0473633	0.983887	-0.029541	0	0	0
-0.0479736	0.985718	-0.0299072	0	0	0
-0.0488281	0.983643	-0.0308838	0	0	0
-0.0479736	0.984375	-0.0305176	0	0	0
-0.0474854	0.984863	-0.0301514	0	0	0
-0.0463867	0.985962	-0.0292969	0	0	0
-0.0479736	0.985596	-0.0294189	0	0	0
-0.0478516	0.984863	-0.0292969	0	0	0
-0.0484619	0.985596	-0.0296631	0	0	0
-0.0478516	0.985474	-0.0292969	0	0	0
-0.0483398	0.984375	-0.0300293	0	0	0
-0.0472412	0.984375	-0.0297852	0	0	0
-0.0458984	0.984985	-0.0291748	0	0	0
-0.0446777	0.984375	-0.0296631	0	0	0
-0.0460205	0.984863	-0.0324707	0	0	0
-0.0463867	0.985352	-0.0306396	0	0	0
-0.0476074	0.985107	-0.0308838	0	0	0
-0.0478516	0.984619	-0.03125	0	0	0
-0.0471191	0.983398	-0.0316162	0	0	0
-0.0467529	0.983398	-0.0289307	0	0	0
-0.0484619	0.983276	-0.0292969	0	0	0
-0.046875	0.982788	-0.0296631	0	0	0
-0.0463867	0.984741	-0.0305176	0	0	0
-0.0472412	0.984375	-0.0294189	0	0	0
-0.0466309	0.984131	-0.0288086	0	0	0
-0.0467529	0.985962	-0.0292969	0	0	0
-0.0472412	0.984619	-0.0283203	0	0	0
-0.048584	0.986328	-0.0285645	0	0	0
-0.048584	0.983887	-0.0294189	0	0	0
-0.0479736	0.983887	-0.0299072	0	0	0
-0.0458984	0.983032	-0.0302734	0	0	0
-0.0471191	0.984009	-0.0306396	0	0	0
-0.0458984	0.983154	-0.0306396	0	0	0
-0.0458984	0.983643	-0.0297852	0	0	0
-0.0465088	0.983276	-0.0299072	0	0	0
-0.0482178	0.983521	-0.0305176	0	0	0
-0.0463867	0.984619	-0.0307617	0	0	0
-0.0472412	0.984497	-0.0310059	0	0	0
-0.046875	0.984497	-0.0301514	0	0	0
-0.0479736	0.984497	-0.0300293	0	0	0
-0.0479736	0.984863	-0.0284424	0	0	0
-0.0466309	0.985718	-0.0285645	0	0	0
-0.0484619	0.983887	-0.0300293	0	0	0
-0.0465088	0.984131	-0.0290527	0	0	0
-0.0449219	0.983765	-0.0292969	0	0	0
-0.0455322	0.985718	-0.0305176	0	0	0
-0.0471191	0.984863	-0.0305176	0	0	0
-0.0471191	0.983276	-0.0301514	0	0	0
-0.0456543	0.984131	-0.0296631	0	0	0
-0.0463867	0.983887	-0.0300293	0	0	0
-0.0471191	0.982788	-0.0308838	0	0	0
-0.0477295	0.983398	-0.0297852	0	0	0
-0.0477295	0.985596	-0.0302734	0	0	0
-0.0474854	0.982788	-0.0305176	0	0	0
-0.0465088	0.984497	-0.0299072	0	0	0
-0.0457764	0.984985	-0.0292969	0	0	0
-0.0460205	0.985107	-0.0285645	0	0	0
-0.0474854	0.983887	-0.029541	0	0	0
-0.0479736	0.984741	-0.0297852	0	0	0
-0.0478516	0.984985	-0.0294189	0	0	0
-0.0477295	0.985107	-0.0286865	0	0	0
-0.0471191	0.984009	-0.0288086	0	0	0
-0.0471191	0.985474	-0.0290527	0	0	0
-0.0461426	0.985474	-0.0299072	0	0	0
-0.0462646	0.982544	-0.0306396	0	0	0
-0.0473633	0.984863	-0.0297852	0	0	0
-0.0456543	0.985596	-0.0301514	0	0	0
-0.0466309	0.984131	-0.0306396	0	0	0
-0.0456543	0.985107	-0.0303955	0	0	0
-0.0467529	0.984619	-0.0308838	0	0	0
-0.0476074	0.984009	-0.0305176	0	0	0
-0.0482178	0.984741	-0.0310059	0	0	0
-0.048584	0.98291	-0.029541	0	0	0
-0.0484619	0.984619	-0.0303955	0	0	0
-0.0471191	0.984375	-0.0308838	0	0	0
-0.0460205	0.984985	-0.0300293	0	0	0
-0.0460205	0.983887	-0.0302734	0	0	0
-0.0483398	0.984863	-0.0305176	0	0	0
-0.0467529	0.985962	-0.0290527	0	0	0
-0.045166	0.985474	-0.0288086	0	0	0
-0.0456543	0.984009	-0.0301514	0	0	0
-0.0458984	0.984131	-0.0306396	0	0	0
-0.046875	0.983643	-0.0305176	0	0	0
-0.0454102	0.983154	-0.0294189	0	0	0
-0.0457764	0.983887	-0.0288086	0	0	0
-0.0452881	0.983398	-0.0301514	0	0	0
-0.0457764	0.984375	-0.0305176	0	0	0
-0.0460205	0.985474	-0.0291748	0	0	0
-0.0452881	0.984497	-0.0288086	0	0	0
-0.0457764	0.985596	-0.0296631	0	0	0
-0.0454102	0.985596	-0.0296631	0	0	0
-0.0465088	0.984009	-0.0292969	0	0	0
-0.0460205	0.984131	-0.029541	0	0	0
-0.0473633	0.982788	-0.0286865	0	0	0
-0.0499268	0.982788	-0.0281982	0	0	0
-0.0484619	0.983887	-0.0285645	0	0	0
-0.0490723	0.984009	-0.0294189	0	0	0
-0.0479736	0.985596	-0.0297852	0	0	0
-0.0467529	0.98584	-0.0308838	0	0	0
-0.0471191	0.985229	-0.0307617	0	0	0
-0.0465088	0.985474	-0.0300293	0	0	0
-0.0455322	0.983887	-0.0299072	0	0	0
-0.0465088	0.983521	-0.0299072	0	0	0
-0.0476074	0.983643	-0.0299072	0	0	0
-0.045166	0.984497	-0.0296631	0	0	0
