0.0843506	-0.0146484	-0.999268	0	0	0
0.0834961	-0.0144043	-0.997681	0	0	0
0.0836182	-0.0159912	-1.00061	0	0	0
0.0823975	-0.0158691	-0.998535	0	0	0
0.0831299	-0.0159912	-0.999268	0	0	0
0.0823975	-0.0144043	-0.99939	0	0	0
0.0820312	-0.0159912	-0.999756	0	0	0
0.0836182	-0.0147705	-0.998901	0	0	0
0.0836182	-0.015625	-0.997681	0	0	0
0.0820312	-0.0155029	-0.997192	0	0	0
0.0831299	-0.0162354	-0.998901	0	0	0
0.0826416	-0.0174561	-0.997925	0	0	0
0.0823975	-0.0158691	-0.99939	0	0	0
0.0843506	-0.0150146	-0.998047	0	0	0
0.0849609	-0.015625	-0.99939	0	0	0
0.0837402	-0.015625	-1	0	0	0
0.0836182	-0.0142822	-0.999146	0	0	0
0.0834961	-0.0161133	-0.999146	0	0	0
0.0838623	-0.0153809	-0.998901	0	0	0
0.0834961	-0.0146484	-0.999023	0	0	0
0.0830078	-0.0168457	-0.999023	0	0	0
0.0831299	-0.0168457	-0.99939	0	0	0
0.0823975	-0.0159912	-0.999878	0	0	0
0.0837402	-0.0142822	-0.998901	0	0	0
0.0823975	-0.0150146	-0.999634	0	0	0
0.0822754	-0.0147705	-0.99939	0	0	0
0.0841064	-0.0148926	-0.998779	0	0	0
0.0830078	-0.0152588	-0.999756	0	0	0
0.0826416	-0.0164795	-0.999146	0	0	0
0.0817871	-0.0162354	-0.999023	0	0	0
0.0831299	-0.0140381	-0.998413	0	0	0
0.0843506	-0.0152588	-0.998291	0	0	0
0.0845947	-0.0169678	-0.997925	0	0	0
0.0841064	-0.0140381	-0.998901	0	0	0
0.0831299	-0.0155029	-1.00012	0	0	0
0.0825195	-0.0162354	-0.998413	0	0	0
0.0822754	-0.0166016	-0.998779	0	0	0
0.0836182	-0.0146484	-0.999512	0	0	0
0.0811768	-0.0142822	-0.999512	0	0	0
0.081665	-0.0135498	-0.998535	0	0	0
0.0821533	-0.0144043	-0.999146	0	0	0
0.0837402	-0.0153809	-0.999268	0	0	0
0.083252	-0.0147705	-1.00037	0	0	0
0.0826416	-0.0148926	-0.998901	0	0	0
0.083252	-0.0150146	-0.998779	0	0	0
0.0830078	-0.0167236	-0.999512	0	0	0
0.0827637	-0.0172119	-0.999268	0	0	0
0.0844727	-0.0161133	-0.999146	0	0	0
0.0836182	-0.015625	-0.998779	0	0	0
0.0827637	-0.0150146	-0.998779	0	0	0
0.083374	-0.0146484	-0.998901	0	0	0
0.0853271	-0.0158691	-0.998901	0	0	0
0.0838623	-0.0155029	-0.998047	0	0	0
0.0847168	-0.0153809	-0.998901	0	0	0
0.0853271	-0.0152588	-0.998535	0	0	0
0.0838623	-0.0161133	-0.999146	0	0	0
0.0830078	-0.0148926	-0.998169	0	0	0
0.0841064	-0.0158691	-1.00024	0	0	0
0.0834961	-0.013916	-0.99939	0	0	0
0.0826416	-0.0150146	-0.999634	0	0	0
0.0830078	-0.0144043	-0.999268	0	0	0
0.0827637	-0.0158691	-0.999512	0	0	0
0.083374	-0.0153809	-0.999878	0	0	0
0.0843506	-0.0152588	-0.99939	0	0	0
0.0842285	-0.0158691	-0.99939	0	0	0
0.0844727	-0.0178223	-0.999512	0	0	0
0.0827637	-0.0177002	-0.998535	0	0	0
0.0837402	-0.0151367	-0.997803	0	0	0
0.0830078	-0.0155029	-0.998169	0	0	0
0.083374	-0.0167236	-0.998535	0	0	0
0.0836182	-0.0161133	-0.998169	0	0	0
0.083374	-0.0136719	-0.999756	0	0	0
0.0827637	-0.013916	-0.998535	0	0	0
0.0844727	-0.0148926	-0.999878	0	0	0
0.0831299	-0.0146484	-0.998779	0	0	0
0.0843506	-0.0144043	-0.998657	0	0	0
0.0836182	-0.0152588	-0.998169	0	0	0
0.0856934	-0.0166016	-0.998169	0	0	0
0.0847168	-0.0168457	-0.998169	0	0	0
0.083374	-0.0163574	-0.998047	0	0	0
0.083374	-0.0153809	-0.998413	0	0	0
0.0828857	-0.0152588	-0.998169	0	0	0
0.0844727	-0.015625	-0.998291	0	0	0
0.0830078	-0.0145264	-0.999023	0	0	0
0.0843506	-0.0151367	-0.999634	0	0	0
0.0839844	-0.0153809	-0.998535	0	0	0
0.0853271	-0.0164795	-0.99939	0	0	0
0.085083	-0.0158691	-0.998779	0	0	0
0.0843506	-0.0161133	-0.999146	0	0	0
0.0849609	-0.0159912	-0.999756	0	0	0
0.0839844	-0.0153809	-0.999634	0	0	0
0.0837402	-0.0144043	-0.999023	0	0	0
0.0825195	-0.013916	-0.99939	0	0	0
0.0842285	-0.0144043	-0.999268	0	0	0
0.0830078	-0.0148926	-0.999023	0	0	0
0.0825195	-0.0144043	-0.998901	0	0	0
0.0842285	-0.0152588	-0.999878	0	0	0
0.083374	-0.0158691	-0.99939	0	0	0
0.0841064	-0.0158691	-1.00012	0	0	0
0.0844727	-0.0164795	-1.0011	0	0	0
0.0831299	-0.015625	-1.00061	0	0	0
0.0844727	-0.0162354	-1.00012	0	0	0
0.0825195	-0.0153809	-0.999268	0	0	0
0.083252	-0.0162354	-1.00012	0	0	0
0.0811768	-0.0150146	-1.00024	0	0	0
0.0817871	-0.015625	-0.999268	0	0	0
0.0839844	-0.0152588	-0.997803	0	0	0
0.0822754	-0.015625	-0.999268	0	0	0
0.0830078	-0.015625	-0.998413	0	0	0
0.0826416	-0.0152588	-0.998169	0	0	0
0.0828857	-0.0147705	-0.999512	0	0	0
0.0837402	-0.0152588	-0.999756	0	0	0
0.0836182	-0.0151367	-0.998779	0	0	0
0.0823975	-0.0161133	-0.998291	0	0	0
0.083252	-0.0153809	-0.998047	0	0	0
0.0828857	-0.0144043	-0.99939	0	0	0
0.0837402	-0.0135498	-0.999268	0	0	0
0.0843506	-0.0147705	-0.998413	0	0	0
0.0849609	-0.0148926	-0.999512	0	0	0
0.0856934	-0.0153809	-0.999634	0	0	0
0.0827637	-0.015625	-0.999512	0	0	0
0.085083	-0.0148926	-0.999634	0	0	0
0.0852051	-0.015625	-0.998535	0	0	0
0.0828857	-0.0159912	-0.997559	0	0	0
0.0830078	-0.0155029	-0.99939	0	0	0
0.0827637	-0.0158691	-0.999878	0	0	0
0.0831299	-0.0145264	-0.999268	0	0	0
0.081543	-0.0145264	-0.999512	0	0	0
0.0805664	-0.0140381	-1.00024	0	0	0
0.0836182	-0.0144043	-0.998535	0	0	0
0.0837402	-0.013916	-0.998657	0	0	0
0.083374	-0.0134277	-0.99939	0	0	0
0.0830078	-0.0152588	-0.999634	0	0	0
0.0842285	-0.0151367	-0.998779	0	0	0
0.0827637	-0.0163574	-0.997559	0	0	0
0.0837402	-0.0150146	-0.998535	0	0	0
0.0847168	-0.0147705	-0.999146	0	0	0
0.0834961	-0.0155029	-0.998657	0	0	0
0.0836182	-0.0151367	-0.998657	0	0	0
0.0825195	-0.0158691	-0.997803	0	0	0
0.0822754	-0.0147705	-0.998657	0	0	0
0.0849609	-0.0159912	-0.997803	0	0	0
0.0848389	-0.015625	-0.99939	0	0	0
0.0838623	-0.0147705	-0.998535	0	0	0
0.0822754	-0.0147705	-0.998535	0	0	0
0.0814209	-0.0142822	-0.999268	0	0	0
0.0831299	-0.0142822	-0.999878	0	0	0
0.0822754	-0.0147705	-0.998657	0	0	0
0.0820312	-0.0161133	-0.998291	0	0	0
0.0826416	-0.0142822	-0.998169	0	0	0
0.0834961	-0.0155029	-0.998901	0	0	0
0.0825195	-0.0150146	-0.999634	0	0	0
0.0811768	-0.0158691	-0.998169	0	0	0
0.0837402	-0.015625	-0.997314	0	0	0
0.0836182	-0.0172119	-0.997925	0	0	0
0.0841064	-0.0177002	-0.99939	0	0	0
0.0836182	-0.0167236	-0.998291	0	0	0
0.0819092	-0.0152588	-0.997925	0	0	0
0.0808105	-0.0161133	-0.999023	0	0	0
0.0817871	-0.0172119	-0.999634	0	0	0
0.0803223	-0.0164795	-0.999634	0	0	0
0.0822754	-0.0172119	-0.999268	0	0	0
0.0817871	-0.0161133	-0.998291	0	0	0
0.0822754	-0.0153809	-0.999878	0	0	0
0.0839844	-0.0142822	-0.998535	0	0	0
0.0828857	-0.0144043	-0.999268	0	0	0
0.0823975	-0.0155029	-0.999268	0	0	0
0.0848389	-0.0161133	-0.998901	0	0	0
0.0837402	-0.015625	-0.998657	0	0	0
0.0830078	-0.0161133	-0.999878	0	0	0
0.083374	-0.0147705	-0.999512	0	0	0
0.0826416	-0.0152588	-0.998535	0	0	0
0.0836182	-0.0153809	-0.99939	0	0	0
0.0841064	-0.0151367	-0.999756	0	0	0
0.0853271	-0.0151367	-0.998413	0	0	0
0.0839844	-0.0152588	-0.999268	0	0	0
0.083252	-0.0148926	-0.998779	0	0	0
0.0828857	-0.0148926	-0.997925	0	0	0
0.083374	-0.0158691	-0.998047	0	0	0
0.0827637	-0.0150146	-0.998047	0	0	0
0.0828857	-0.015625	-0.998901	0	0	0
0.0828857	-0.0145264	-0.998901	0	0	0
0.0847168	-0.0163574	-1	0	0	0
0.083252	-0.0148926	-0.999146	0	0	0
0.0821533	-0.0151367	-0.999512	0	0	0
0.0836182	-0.0166016	-0.999146	0	0	0
0.083374	-0.0168457	-0.998657	0	0	0
0.0819092	-0.0167236	-0.999756	0	0	0
0.0823975	-0.0158691	-0.999268	0	0	0
0.0822754	-0.0152588	-0.99939	0	0	0
0.0827637	-0.0158691	-0.998291	0	0	0
0.0834961	-0.0151367	-0.99939	0	0	0
0.0828857	-0.0146484	-0.999146	0	0	0
0.0848389	-0.0148926	-0.998291	0	0	0
0.0837402	-0.0169678	-0.999756	0	0	0
0.0842285	-0.017334	-0.998779	0	0	0
0.0827637	-0.0147705	-0.998657	0	0	0
0.0839844	-0.0159912	-0.997314	0	0	0
0.083374	-0.0169678	-0.998901	0	0	0
0.0828857	-0.0151367	-0.998657	0	0	0
0.0838623	-0.0145264	-0.999634	0	0	0
0.0820312	-0.0137939	-0.999268	0	0	0
0.0830078	-0.0151367	-0.998169	0	0	0
0.0836182	-0.0169678	-0.99939	0	0	0
0.0839844	-0.0146484	-1.00012	0	0	0
0.0841064	-0.0142822	-0.999756	0	0	0
0.0820312	-0.0148926	-0.998291	0	0	0
0.0810547	-0.0152588	-1	0	0	0
0.0808105	-0.0153809	-0.999634	0	0	0
0.0822754	-0.0172119	-0.999146	0	0	0
0.0825195	-0.0151367	-0.998657	0	0	0
0.0808105	-0.0164795	-0.999146	0	0	0
0.0828857	-0.015625	-0.998291	0	0	0
0.0844727	-0.0164795	-1.00012	0	0	0
0.0836182	-0.015625	-0.998657	0	0	0
0.0845947	-0.0170898	-0.999512	0	0	0
0.0838623	-0.0146484	-0.998047	0	0	0
0.0826416	-0.0145264	-0.999146	0	0	0
0.0828857	-0.0145264	-0.998901	0	0	0
0.0836182	-0.0153809	-0.999268	0	0	0
0.0838623	-0.0150146	-0.999878	0	0	0
0.0834961	-0.0155029	-0.999268	0	0	0
0.081665	-0.0140381	-0.996338	0	0	0
0.083252	-0.0147705	-0.999268	0	0	0
0.0823975	-0.0158691	-1.00146	0	0	0
0.0826416	-0.015625	-1.0011	0	0	0
0.0838623	-0.0153809	-1.00049	0	0	0
0.0826416	-0.0166016	-0.996094	0	0	0
0.083374	-0.0181885	-0.99939	0	0	0
0.0831299	-0.015625	-0.998779	0	0	0
0.0847168	-0.0167236	-0.999634	0	0	0
0.086792	-0.0151367	-0.998901	0	0	0
0.0842285	-0.0159912	-0.998779	0	0	0
0.0805664	-0.0153809	-0.998047	0	0	0
0.083374	-0.0172119	-0.999146	0	0	0
0.0843506	-0.0169678	-1	0	0	0
0.0842285	-0.0169678	-0.999023	0	0	0
0.0843506	-0.0150146	-0.997925	0	0	0
0.0839844	-0.0155029	-0.999512	0	0	0
0.0844727	-0.0145264	-1.00061	0	0	0
0.0856934	-0.0158691	-1.00024	0	0	0
0.0855713	-0.0153809	-0.999146	0	0	0
0.0838623	-0.0153809	-0.998901	0	0	0
0.0828857	-0.0141602	-0.996826	0	0	0
0.0844727	-0.0145264	-0.998169	0	0	0
0.0820312	-0.0148926	-0.999512	0	0	0
0.0804443	-0.013916	-0.998413	0	0	0
0.0810547	-0.0158691	-0.997437	0	0	0
0.0817871	-0.0177002	-0.998291	0	0	0
0.0819092	-0.0170898	-0.999268	0	0	0
0.0825195	-0.0169678	-0.998901	0	0	0
0.0811768	-0.0161133	-1.00049	0	0	0
0.0821533	-0.0166016	-0.998779	0	0	0
0.0808105	-0.0142822	-0.999634	0	0	0
0.081543	-0.0158691	-0.999268	0	0	0
0.0837402	-0.0148926	-0.997925	0	0	0
0.0841064	-0.0151367	-0.999146	0	0	0
0.0842285	-0.0141602	-0.999756	0	0	0
0.083374	-0.0136719	-0.999512	0	0	0
0.0828857	-0.015625	-0.99939	0	0	0
0.0839844	-0.0161133	-0.998535	0	0	0
0.0839844	-0.0150146	-0.997681	0	0	0
0.083374	-0.0147705	-0.99939	0	0	0
0.0834961	-0.0151367	-0.998291	0	0	0
0.0839844	-0.015625	-0.998169	0	0	0
0.0836182	-0.0158691	-0.998291	0	0	0
0.0845947	-0.0159912	-0.998779	0	0	0
0.083252	-0.0161133	-0.998657	0	0	0
0.0820312	-0.0158691	-0.999146	0	0	0
0.0831299	-0.0167236	-1.00073	0	0	0
0.0823975	-0.017334	-0.998779	0	0	0
0.0812988	-0.017334	-0.998901	0	0	0
0.0803223	-0.0150146	-0.999146	0	0	0
0.0809326	-0.0153809	-0.998535	0	0	0
0.0802002	-0.0155029	-0.999878	0	0	0
0.0814209	-0.0153809	-1	0	0	0
0.079834	-0.0144043	-1	0	0	0
0.0803223	-0.0148926	-1.00073	0	0	0
0.0809326	-0.0155029	-0.999268	0	0	0
0.0817871	-0.0141602	-0.998657	0	0	0
0.0810547	-0.0152588	-0.999634	0	0	0
0.0819092	-0.0152588	-0.998779	0	0	0
0.0820312	-0.0163574	-0.998657	0	0	0
0.0827637	-0.0158691	-0.998169	0	0	0
0.0822754	-0.0150146	-0.999756	0	0	0
0.0836182	-0.017334	-0.999023	0	0	0
0.0843506	-0.0166016	-0.999634	0	0	0
0.0834961	-0.0167236	-0.997925	0	0	0
0.0848389	-0.0162354	-0.999146	0	0	0
0.0827637	-0.0162354	-0.998535	0	0	0
0.0842285	-0.0159912	-0.998901	0	0	0
0.0819092	-0.0148926	-0.999756	0	0	0
0.083374	-0.0151367	-0.999023	0	0	0
0.0828857	-0.0155029	-0.999512	0	0	0
0.0837402	-0.0150146	-1.00024	0	0	0
0.0820312	-0.013916	-0.999756	0	0	0
0.0808105	-0.0151367	-0.997681	0	0	0
0.0825195	-0.0140381	-0.999023	0	0	0
0.0820312	-0.0146484	-0.998657	0	0	0
0.0828857	-0.0144043	-0.998779	0	0	0
0.0839844	-0.0158691	-0.998779	0	0	0
0.0821533	-0.0155029	-0.999756	0	0	0
0.0817871	-0.0184326	-0.998901	0	0	0
0.0826416	-0.0152588	-0.99939	0	0	0
0.0831299	-0.0162354	-0.998901	0	0	0
0.0822754	-0.0144043	-0.999634	0	0	0
0.0830078	-0.0158691	-1	0	0	0
0.0828857	-0.0137939	-0.999268	0	0	0
0.0828857	-0.0137939	-0.999146	0	0	0
0.0828857	-0.0145264	-1.00024	0	0	0
0.0823975	-0.0159912	-0.999268	0	0	0
0.083374	-0.015625	-0.999268	0	0	0
0.0845947	-0.0159912	-1.00012	0	0	0
0.0831299	-0.0166016	-0.999634	0	0	0
0.0825195	-0.0155029	-0.998657	0	0	0
0.0831299	-0.0148926	-0.998779	0	0	0
0.0825195	-0.0150146	-0.998779	0	0	0
0.0820312	-0.0145264	-0.999512	0	0	0
0.0819092	-0.0142822	-0.999512	0	0	0
0.081665	-0.0159912	-0.999878	0	0	0
0.0830078	-0.015625	-0.998413	0	0	0
0.0823975	-0.0153809	-0.997803	0	0	0
0.0830078	-0.0163574	-0.998047	0	0	0
0.0820312	-0.0170898	-0.99939	0	0	0
0.0810547	-0.0167236	-0.99939	0	0	0
0.081543	-0.0179443	-0.998413	0	0	0
0.0811768	-0.0155029	-0.998901	0	0	0
0.0827637	-0.0158691	-0.999146	0	0	0
0.0820312	-0.0155029	-0.998901	0	0	0
0.0806885	-0.0146484	-0.997803	0	0	0
0.0802002	-0.0150146	-1.00012	0	0	0
0.0814209	-0.0144043	-0.99939	0	0	0
0.0820312	-0.0158691	-0.998779	0	0	0
0.0802002	-0.0161133	-0.998413	0	0	0
0.0823975	-0.0135498	-0.999146	0	0	0
0.0808105	-0.0144043	-0.99939	0	0	0
0.0817871	-0.0130615	-0.998535	0	0	0
0.0819092	-0.0145264	-0.999756	0	0	0
0.0828857	-0.0161133	-0.999146	0	0	0
0.0823975	-0.0147705	-0.999023	0	0	0
0.0820312	-0.0166016	-1	0	0	0
0.0822754	-0.0164795	-0.999268	0	0	0
0.0823975	-0.0175781	-0.998535	0	0	0
0.0828857	-0.0170898	-0.997925	0	0	0
0.0834961	-0.0163574	-0.998535	0	0	0
0.0831299	-0.0153809	-0.999268	0	0	0
0.0821533	-0.015625	-0.998779	0	0	0
0.081543	-0.0158691	-0.998657	0	0	0
0.0822754	-0.0155029	-0.999023	0	0	0
0.0826416	-0.0152588	-0.998901	0	0	0
0.081543	-0.0142822	-0.999023	0	0	0
0.0827637	-0.0158691	-0.997559	0	0	0
0.083374	-0.0155029	-0.998535	0	0	0
0.0838623	-0.0144043	-0.998657	0	0	0
0.0802002	-0.0150146	-0.998779	0	0	0
0.0826416	-0.0153809	-1.00012	0	0	0
0.0830078	-0.0141602	-0.99939	0	0	0
0.0825195	-0.0144043	-0.999268	0	0	0
0.0825195	-0.015625	-0.999268	0	0	0
0.0823975	-0.0166016	-0.999268	0	0	0
0.0827637	-0.0168457	-0.999512	0	0	0
0.081665	-0.0159912	-0.998535	0	0	0
0.0812988	-0.0158691	-0.998657	0	0	0
0.0812988	-0.0144043	-0.998901	0	0	0
0.0806885	-0.0153809	-0.999023	0	0	0
0.0826416	-0.0158691	-0.998657	0	0	0
0.0814209	-0.0155029	-0.998291	0	0	0
0.0817871	-0.0158691	-0.999023	0	0	0
0.0803223	-0.0150146	-0.999023	0	0	0
0.0826416	-0.0151367	-0.998291	0	0	0
0.0823975	-0.0159912	-0.999756	0	0	0
0.0811768	-0.0158691	-0.999756	0	0	0
0.0814209	-0.0150146	-0.998535	0	0	0
0.0830078	-0.0150146	-0.998901	0	0	0
0.0828857	-0.0145264	-0.999268	0	0	0
0.0828857	-0.0152588	-0.998901	0	0	0
0.0821533	-0.0152588	-0.998779	0	0	0
0.0830078	-0.015625	-0.997925	0	0	0
0.0837402	-0.0137939	-0.998047	0	0	0
0.0825195	-0.013916	-0.998291	0	0	0
0.0834961	-0.0142822	-0.998901	0	0	0
0.0838623	-0.0146484	-0.998169	0	0	0
0.083252	-0.0167236	-0.998779	0	0	0
0.0837402	-0.0147705	-0.998779	0	0	0
0.0834961	-0.0141602	-0.998657	0	0	0
0.0841064	-0.013916	-0.998901	0	0	0
0.0839844	-0.0131836	-0.998413	0	0	0
0.0842285	-0.0131836	-1	0	0	0
0.0839844	-0.0148926	-0.999268	0	0	0
0.0822754	-0.0150146	-0.999146	0	0	0
0.0812988	-0.0153809	-0.999634	0	0	0
0.081665	-0.0151367	-0.998901	0	0	0
0.0817871	-0.0150146	-0.998657	0	0	0
0.0826416	-0.0140381	-0.997803	0	0	0
0.0826416	-0.0158691	-0.996704	0	0	0
0.0831299	-0.0152588	-0.999878	0	0	0
0.0825195	-0.0152588	-1.00037	0	0	0
0.083374	-0.0155029	-0.999756	0	0	0
0.0823975	-0.0162354	-0.998413	0	0	0
0.0823975	-0.0164795	-0.997681	0	0	0
0.0825195	-0.0163574	-0.998535	0	0	0
0.0843506	-0.0142822	-0.998047	0	0	0
0.0819092	-0.0151367	-0.998901	0	0	0
0.083374	-0.0146484	-0.998169	0	0	0
0.0830078	-0.0146484	-0.997437	0	0	0
0.0822754	-0.0153809	-0.998169	0	0	0
0.0819092	-0.0144043	-0.998779	0	0	0
0.0825195	-0.0148926	-0.999146	0	0	0
0.0819092	-0.0153809	-0.998535	0	0	0
0.0817871	-0.015625	-0.998535	0	0	0
0.0822754	-0.013916	-0.997559	0	0	0
0.0823975	-0.0151367	-0.999146	0	0	0
0.0806885	-0.0155029	-0.998535	0	0	0
0.079834	-0.0161133	-0.999512	0	0	0
0.0823975	-0.0167236	-0.997803	0	0	0
0.0783691	-0.0158691	-1.00061	0	0	0
0.0773926	-0.0164795	-1.00049	0	0	0
0.0817871	-0.0178223	-0.997314	0	0	0
0.0344238	-0.0140381	-1.00574	0	-1	0
0.0252686	-0.010498	-1.00757	0	-1	-2
0.00524902	-0.0128174	-1.00769	0	0	-4
0.0273438	-0.0179443	-1.00732	1	0	-7
0.119141	-0.0134277	-0.996948	1	0	-8
0.109497	-0.0189209	-0.997437	1	0	-7
0.12146	-0.0205078	-0.994873	1	0	-6
0.0782471	-0.019043	-0.994385	1	-1	-5
0.0819092	-0.0167236	-1.00208	1	0	-6
0.0477295	-0.0164795	-1.00134	1	-2	-7
0.0513916	-0.012085	-1.00403	1	-2	-8
0.0742188	-0.020874	-1.00513	1	-4	-9
0.118042	-0.0303955	-1.00012	1	-6	-10
0.146973	-0.0358887	-0.995239	1	-9	-11
0.15979	-0.0498047	-0.989136	1	-11	-10
0.153076	-0.0447998	-0.984131	1	-11	-9
0.148926	-0.0799561	-0.984863	1	-9	-8
0.167969	-0.105835	-0.999878	1	-8	-7
0.19104	-0.0955811	-1.00342	1	-13	-6
0.158813	-0.0209961	-0.997559	1	-24	-7
0.116089	0.0299072	-1.00208	1	-29	-8
0.098877	0.0343018	-1.07092	0	-32	-10
0.0852051	0.00891113	-1.15308	-3	-37	-10
0.0700684	-0.0117188	-1.1897	-11	-46	-9
0.0523682	-0.0135498	-1.21301	-22	-55	-8
0.0469971	0.00231934	-1.27478	-32	-64	-6
0.0473633	0.0196533	-1.34546	-38	-69	-5
0.0400391	0.0345459	-1.38208	-41	-72	-4
0.0438232	0.0491943	-1.39185	-40	-72	-3
0.0598145	0.0588379	-1.3916	-37	-73	-1
0.0664062	0.0646973	-1.3761	-32	-77	0
0.05896	0.0808105	-1.35803	-27	-84	3
0.0471191	0.0905762	-1.33313	-20	-89	5
0.03125	0.081665	-1.31079	-13	-94	7
0.0202637	0.0717773	-1.30225	-5	-100	9
-0.020874	0.0524902	-1.25903	2	-105	10
-0.0334473	0.0388184	-1.19067	12	-108	8
-0.0306396	0.0343018	-1.12903	20	-108	6
-0.0279541	0.0294189	-1.07983	28	-106	3
-0.0231934	0.0228271	-1.04187	34	-103	2
-0.00878906	0.0180664	-1.02124	40	-101	1
0.0065918	0.00683594	-1.00659	44	-99	1
0.00842285	-0.0185547	-0.996704	48	-97	1
0.00305176	-0.036377	-0.98645	52	-95	1
0.000854492	-0.0350342	-0.975098	54	-94	1
-0.0192871	-0.0424805	-0.96521	56	-91	1
-0.0494385	-0.0484619	-0.955078	57	-88	1
-0.0733643	-0.0610352	-0.982422	57	-84	0
-0.0917969	-0.0650635	-1.01306	58	-82	0
-0.105469	-0.0430908	-0.994629	61	-82	-1
-0.102905	-0.0294189	-0.960449	63	-79	-3
-0.0931396	-0.0400391	-0.936646	62	-70	-4
-0.0970459	-0.0629883	-0.925049	60	-58	-5
-0.119263	-0.0819092	-0.923706	58	-45	-5
-0.142944	-0.0917969	-0.929199	56	-30	-5
-0.175903	-0.0960693	-0.947388	56	-15	-7
-0.198486	-0.10022	-0.985474	56	-1	-11
-0.194946	-0.103638	-1.02808	57	13	-15
-0.172607	-0.0900879	-1.06665	59	31	-19
-0.151978	-0.0635986	-1.09009	61	53	-21
-0.139404	-0.0438232	-1.09998	62	74	-21
-0.139526	-0.0467529	-1.10217	63	91	-20
-0.144775	-0.052124	-1.0979	62	103	-18
-0.143433	-0.0559082	-1.09375	62	111	-15
-0.138916	-0.0606689	-1.08948	62	118	-12
-0.133667	-0.0656738	-1.07959	62	124	-9
-0.130615	-0.0770264	-1.06799	61	130	-5
-0.130005	-0.0859375	-1.05237	61	136	-2
-0.116699	-0.102173	-1.04224	60	142	0
-0.103149	-0.124512	-1.04102	58	147	2
-0.09021	-0.152344	-1.04358	55	152	4
-0.071167	-0.175537	-1.04382	52	159	4
-0.0568848	-0.193848	-1.04663	47	167	3
-0.0445557	-0.208618	-1.05933	43	178	0
-0.0297852	-0.209839	-1.0603	39	189	-2
-0.0167236	-0.207886	-1.05774	36	200	-5
0.00854492	-0.208618	-1.06396	32	211	-8
0.0211182	-0.207764	-1.06323	28	217	-12
0.0262451	-0.20105	-1.05432	24	222	-16
0.0252686	-0.193604	-1.04175	19	228	-20
0.0352783	-0.19043	-1.0271	15	234	-26
0.0540771	-0.187378	-1.00708	11	241	-32
0.0776367	-0.179321	-0.979858	6	246	-38
0.109131	-0.170654	-0.942871	1	249	-44
0.143677	-0.165649	-0.906372	-3	251	-49
0.211914	-0.154297	-0.834595	-8	251	-54
0.235107	-0.134766	-0.769897	-14	246	-57
0.23645	-0.139526	-0.752197	-20	241	-58
0.259766	-0.150513	-0.744507	-24	242	-59
0.298462	-0.149658	-0.756592	-26	243	-59
0.335693	-0.137085	-0.77356	-27	243	-57
0.364746	-0.12439	-0.798706	-28	242	-55
0.377563	-0.114624	-0.818359	-29	242	-53
0.378052	-0.108521	-0.827759	-30	243	-52
0.381592	-0.100586	-0.813721	-31	246	-50
0.409912	-0.0874023	-0.80603	-32	250	-48
0.400391	-0.0865479	-0.808228	-33	252	-46
0.404175	-0.114746	-0.773193	-34	256	-44
0.478516	-0.105347	-0.760254	-37	261	-43
0.525024	-0.0761719	-0.751221	-39	258	-42
0.540283	-0.0570068	-0.747803	-39	249	-40
0.514526	-0.0419922	-0.764893	-39	237	-37
0.470337	-0.0489502	-0.753296	-37	226	-33
0.45166	-0.0609131	-0.728149	-35	221	-30
0.457886	-0.0655518	-0.706055	-34	218	-29
0.467773	-0.0725098	-0.682983	-32	213	-29
0.47998	-0.0709229	-0.669678	-31	206	-29
0.485718	-0.072876	-0.65625	-29	196	-29
0.495483	-0.083374	-0.643799	-29	186	-30
0.519043	-0.0827637	-0.643555	-28	177	-31
0.545654	-0.0753174	-0.644897	-28	168	-33
0.568237	-0.0631104	-0.651978	-28	159	-36
0.590942	-0.0578613	-0.663818	-27	152	-39
0.614258	-0.0609131	-0.675171	-26	146	-41
0.637573	-0.0621338	-0.683838	-24	142	-42
0.658325	-0.0618896	-0.68811	-21	138	-42
0.672241	-0.0603027	-0.682861	-18	134	-42
0.682617	-0.0643311	-0.672119	-15	130	-40
0.684692	-0.0678711	-0.65625	-12	125	-39
0.678589	-0.0670166	-0.628906	-11	120	-37
0.672974	-0.0664062	-0.592529	-9	115	-36
0.661987	-0.0640869	-0.552979	-8	110	-34
0.650391	-0.0655518	-0.514771	-8	106	-33
0.647095	-0.067627	-0.487671	-8	103	-32
0.656494	-0.0709229	-0.474976	-7	102	-31
0.678589	-0.0767822	-0.472534	-5	101	-30
0.706787	-0.083252	-0.480957	-3	100	-27
0.729858	-0.0797119	-0.492676	-1	98	-24
0.754272	-0.0598145	-0.503418	0	95	-20
0.772827	-0.0328369	-0.496704	2	91	-17
0.782349	-0.0185547	-0.485352	3	88	-14
0.789429	-0.0140381	-0.470581	3	87	-13
0.801514	-0.0141602	-0.46228	1	90	-14
0.81958	-0.0281982	-0.456299	0	95	-15
0.846802	-0.0489502	-0.454224	-1	100	-16
0.865601	-0.0632324	-0.453369	-2	103	-17
0.866333	-0.0351562	-0.440674	-1	108	-17
0.896973	-0.0201416	-0.406006	1	117	-16
0.91748	-0.0426025	-0.386841	5	125	-14
0.918823	-0.0692139	-0.367065	8	129	-12
0.908569	-0.0821533	-0.349731	10	131	-10
0.897583	-0.0787354	-0.346436	12	131	-10
0.891235	-0.0570068	-0.35022	12	130	-10
0.893555	-0.0263672	-0.379639	12	133	-11
0.90686	-0.0100098	-0.393555	11	141	-13
0.908203	-0.0111084	-0.405029	8	149	-15
0.91394	-0.0284424	-0.412109	6	157	-17
0.930054	-0.0458984	-0.402344	3	165	-19
0.950073	-0.0609131	-0.394043	1	173	-21
0.968872	-0.0686035	-0.388062	0	181	-24
0.97522	-0.0783691	-0.374146	-1	187	-26
0.955566	-0.102783	-0.358398	-1	192	-27
0.933594	-0.108887	-0.344482	0	196	-27
0.902222	-0.11377	-0.334229	1	197	-27
0.874756	-0.115234	-0.324585	3	198	-26
0.853149	-0.103516	-0.304199	5	199	-24
0.834961	-0.0803223	-0.28064	6	200	-22
0.817993	-0.0551758	-0.261963	7	202	-20
0.813843	-0.0360107	-0.248169	8	203	-19
0.820557	-0.0131836	-0.241943	10	201	-18
0.828735	0.0109863	-0.232544	11	199	-18
0.834229	0.0267334	-0.216553	11	195	-18
0.824097	0.0362549	-0.20166	12	192	-17
0.806396	0.0371094	-0.177002	12	190	-16
0.788208	0.0306396	-0.157593	13	188	-15
0.775024	0.0255127	-0.152588	14	185	-13
0.762573	0.0358887	-0.147583	15	182	-11
0.76001	0.0445557	-0.137085	16	180	-8
0.767212	0.0280762	-0.161743	16	175	-4
0.776855	0.0430908	-0.173584	14	167	0
0.784546	0.0648193	-0.161011	12	158	2
0.778687	0.0863037	-0.150391	10	150	5
0.759277	0.0880127	-0.123779	7	143	6
0.756592	0.0997314	-0.09729	4	139	7
0.766846	0.120605	-0.0637207	2	136	8
0.789429	0.128052	-0.0333252	1	130	10
0.801025	0.122559	-0.0183105	2	119	13
0.800903	0.115234	-0.00756836	3	105	17
0.791992	0.109009	-0.00268555	4	89	23
0.784424	0.104492	0.0130615	4	75	29
0.777588	0.0887451	0.00598145	4	65	34
0.788086	0.0678711	0.0100098	4	58	37
0.80896	0.0567627	0.0169678	3	53	40
0.822998	0.0484619	0.0220947	2	51	41
0.838623	0.0411377	0.0183105	1	50	41
0.85144	0.0383301	0.00830078	0	50	41
0.861328	0.0352783	-0.00012207	-2	49	40
0.851807	0.0179443	-0.0108643	-4	47	40
0.850708	0.0137939	-0.00378418	-6	45	39
0.856934	0.0178223	0.00744629	-8	42	38
0.871704	0.0213623	0.0200195	-10	39	38
0.894897	0.0231934	0.0332031	-13	35	38
0.92688	0.0183105	0.0523682	-15	32	37
0.959595	0.00854492	0.0755615	-17	29	36
0.985107	-0.00463867	0.107178	-19	27	35
1.01074	-0.0155029	0.133911	-20	27	34
1.03418	-0.0321045	0.153076	-20	28	32
1.05493	-0.0457764	0.165283	-20	29	29
1.08252	-0.0478516	0.182373	-19	31	26
1.09558	-0.0552979	0.186035	-17	31	23
1.10425	-0.0675049	0.189209	-15	30	20
1.1145	-0.0693359	0.197754	-12	29	16
1.11487	-0.0666504	0.207642	-10	29	13
1.11255	-0.057251	0.220947	-8	29	10
1.09277	-0.0651855	0.217529	-7	31	7
1.07874	-0.0769043	0.218384	-6	34	3
1.07471	-0.0761719	0.223633	-7	40	0
1.07544	-0.0811768	0.21582	-8	48	-3
1.08215	-0.0910645	0.204346	-10	55	-5
1.08557	-0.0955811	0.20459	-12	62	-6
1.07959	-0.102783	0.213501	-13	66	-6
1.07446	-0.104004	0.216431	-14	69	-7
1.05005	-0.100586	0.216064	-15	72	-7
1.01538	-0.106934	0.213623	-14	75	-8
1.02808	-0.112305	0.235474	-12	78	-11
1.04492	-0.101196	0.238525	-11	80	-12
1.05371	-0.0855713	0.238037	-10	80	-13
1.06689	-0.0727539	0.237671	-8	78	-13
1.08081	-0.0705566	0.239502	-7	75	-13
1.08459	-0.071167	0.241211	-7	69	-13
1.08167	-0.0629883	0.244507	-7	61	-13
1.07666	-0.057373	0.26416	-6	54	-13
1.07605	-0.0462646	0.287598	-5	46	-15
1.07166	-0.0344238	0.308472	-3	40	-18
1.06921	-0.0266113	0.331787	0	36	-20
1.06299	-0.00183105	0.365479	3	32	-23
1.03479	-0.019165	0.346436	6	32	-26
1.01453	-0.0465088	0.342163	9	31	-28
0.996338	-0.0482178	0.350952	11	30	-29
0.974854	-0.055542	0.340942	12	32	-29
0.966309	-0.0679932	0.330933	13	34	-28
0.966797	-0.0705566	0.317993	14	35	-26
0.968994	-0.0710449	0.307739	14	36	-24
0.969116	-0.0743408	0.300537	14	37	-22
0.970215	-0.0783691	0.294556	14	37	-19
0.964355	-0.0633545	0.288208	13	38	-16
0.946167	-0.038208	0.286987	11	38	-13
0.931763	-0.0147705	0.282104	9	38	-9
0.928345	-0.00378418	0.2771	7	36	-6
0.930786	0.00622559	0.272339	4	34	-4
0.929443	0.0192871	0.269897	1	31	-3
0.922363	0.0245361	0.268311	0	29	-3
0.909912	0.0216064	0.268799	-2	26	-3
0.90625	0.0263672	0.274048	-4	23	-2
0.907715	0.0316162	0.28064	-6	18	0
0.91394	0.0355225	0.292969	-6	12	0
0.914307	0.0275879	0.304565	-6	7	1
0.949829	0.0344238	0.353516	-6	5	2
1.03296	0.0720215	0.23877	-5	-9	5
0.963623	0.0424805	0.249878	-2	-40	10
0.861084	0.0325928	0.375977	-3	-43	15
0.873901	0.0518799	0.304565	-5	-39	18
0.865112	0.0296631	0.285034	-6	-46	21
0.890991	0.0560303	0.286255	-8	-47	23
0.909912	0.0567627	0.276611	-8	-50	26
0.904053	0.0338135	0.284302	-9	-56	28
0.90918	0.0240479	0.273315	-10	-59	29
0.909912	0.010376	0.288818	-10	-62	30
0.92395	0.00622559	0.287231	-11	-62	31
0.92981	0.00463867	0.294189	-12	-60	31
0.948486	-0.00744629	0.299316	-12	-56	31
0.962891	-0.0343018	0.287109	-12	-48	29
0.977295	-0.0595703	0.265381	-10	-41	25
2.09717	-0.207642	0.893311	-8	-37	21
1.95154	0.0158691	0.183472	-12	-77	42
1.13855	-0.264526	0.238037	0	-113	46
1.24548	-0.355591	0.260498	10	-103	18
1.14661	-0.268188	0.179932	14	-91	-1
1.09155	-0.201172	0.183228	13	-65	-9
1.04724	-0.137329	0.227783	10	-40	-8
0.989258	-0.0924072	0.241333	6	-25	-7
0.994507	-0.0549316	0.272705	3	-16	-6
0.985962	-0.00488281	0.221436	2	-9	-4
0.962769	0.0130615	0.194824	0	-7	-2
0.974854	0.0142822	0.1875	0	-5	-1
0.961426	-0.00439453	0.193481	-1	-4	0
0.961426	-0.0145264	0.193481	0	-3	0
0.966064	-0.0180664	0.188843	0	-3	0
0.968018	-0.03125	0.186523	0	-2	0
0.97583	-0.0454102	0.181274	0	-1	1
0.980591	-0.0531006	0.180664	0	0	1
0.984131	-0.0562744	0.180786	0	1	0
0.978516	-0.0546875	0.185547	0	2	0
0.970459	-0.0498047	0.187378	0	3	0
0.963379	-0.0454102	0.190063	0	4	0
0.960449	-0.0412598	0.192383	0	4	0
0.960327	-0.0393066	0.193481	0	3	1
0.958008	-0.0377197	0.190308	-1	2	1
0.954102	-0.0350342	0.187012	-2	1	2
0.939331	-0.0299072	0.190308	-4	1	3
0.914673	-0.0172119	0.197021	-5	0	5
0.869385	0.00854492	0.190796	-7	0	9
0.836914	-0.0201416	0.193237	-9	-6	16
0.835815	-0.0596924	0.160156	-11	-13	23
0.835693	-0.0916748	0.143066	-12	-22	31
0.841431	-0.109741	0.125	-13	-31	38
0.820312	-0.129272	0.0961914	-13	-39	45
0.835938	-0.120972	0.101807	-14	-47	52
0.845581	-0.11377	0.116211	-15	-53	59
0.829834	-0.108521	0.122681	-17	-59	67
0.830933	-0.105347	0.119019	-19	-65	76
0.856567	-0.0991211	0.13147	-21	-73	84
1.33948	-0.00354004	0.567383	-22	-78	91
1.0575	0.010376	0.367554	-27	-60	103
1.06934	-0.105225	0.234741	-28	-47	103
1.06543	-0.124634	0.184448	-26	-51	95
1.05762	-0.123657	0.161255	-22	-50	87
1.8291	-0.211914	0.175293	-18	-48	78
1.12976	-0.432495	-0.0228271	-6	-62	25
0.976562	-0.124878	-0.0397949	5	-10	-1
0.977539	-0.0732422	0.102173	4	-4	-1
0.946777	-0.116821	0.0924072	-1	-6	0
0.972534	-0.137939	0.081665	-6	-7	1
0.992432	-0.153809	0.108765	-8	-6	1
0.97937	-0.16394	0.106201	-10	-6	1
0.993896	-0.156982	0.0943604	-12	-6	0
0.979004	-0.156494	0.0953369	-13	-6	-2
0.970703	-0.153931	0.104858	-15	-5	-3
0.971802	-0.143188	0.10791	-15	-3	-3
0.970215	-0.14563	0.112305	-16	-3	-3
0.968994	-0.141602	0.11377	-16	-3	-2
0.966309	-0.143311	0.114868	-16	-3	-2
0.970093	-0.146606	0.116333	-16	-4	-1
0.969971	-0.147217	0.117065	-15	-4	0
0.97583	-0.150391	0.114746	-14	-3	0
0.976196	-0.151733	0.111938	-14	-3	0
0.975586	-0.149292	0.106934	-13	-2	0
0.980469	-0.146973	0.10437	-13	-2	0
0.96936	-0.163818	0.0917969	-13	-2	-1
0.974121	-0.140503	0.104614	-13	0	-1
0.966187	-0.14624	0.10144	-13	0	-2
0.970093	-0.14563	0.107422	-14	0	-2
0.972168	-0.148438	0.112183	-14	0	-2
0.971802	-0.151367	0.115967	-13	0	-1
0.969482	-0.152954	0.120117	-13	0	-1
0.968506	-0.153442	0.124146	-12	0	-1
0.96814	-0.155884	0.126343	-11	-1	-1
0.970337	-0.157104	0.12146	-9	-1	-1
0.973022	-0.153442	0.11731	-8	-1	-1
0.97168	-0.15564	0.119507	-7	-1	-1
0.969604	-0.157471	0.123047	-6	-1	-1
0.969849	-0.160034	0.116699	-5	-1	0
0.969604	-0.151733	0.120117	-4	-1	0
0.972412	-0.159058	0.11084	-2	-1	0
0.972534	-0.150879	0.109497	-2	-2	0
0.971313	-0.146851	0.117432	-1	-2	0
0.969727	-0.146362	0.119873	-1	-2	0
0.972534	-0.146118	0.112061	0	-3	0
0.97522	-0.148926	0.103149	0	-3	0
0.975586	-0.14978	0.0985107	0	-4	0
0.975952	-0.150513	0.100586	-1	-3	0
0.971313	-0.151489	0.103394	-1	-3	0
0.970947	-0.150757	0.108765	-1	-3	0
0.972412	-0.147339	0.113525	-1	-4	0
0.970459	-0.143311	0.118774	-1	-4	0
0.970215	-0.144287	0.116333	0	-5	0
0.970215	-0.146118	0.112427	0	-6	0
0.97168	-0.150757	0.108032	0	-6	0
0.973633	-0.151367	0.101562	0	-6	0
0.972656	-0.151489	0.102051	0	-5	0
0.974121	-0.152222	0.10437	0	-5	0
0.97522	-0.150757	0.102905	0	-5	0
0.975342	-0.14856	0.101562	0	-5	0
0.975586	-0.146362	0.098877	0	-5	0
0.977783	-0.143433	0.0952148	0	-4	0
0.976685	-0.142456	0.0966797	0	-4	0
0.976318	-0.143799	0.0974121	0	-4	0
0.976318	-0.145996	0.0966797	0	-4	0
0.976807	-0.147705	0.0952148	0	-4	0
0.976929	-0.146484	0.0939941	0	-4	0
0.976807	-0.147949	0.0936279	0	-4	0
0.975708	-0.14917	0.09375	0	-3	0
0.976807	-0.148193	0.0933838	0	-3	0
0.974854	-0.148926	0.0939941	0	-3	0
0.977295	-0.151733	0.09375	0	-2	0
0.97644	-0.150146	0.0943604	0	-2	0
0.973999	-0.14978	0.0969238	0	-2	0
0.976074	-0.149658	0.0953369	0	-1	0
0.976929	-0.14856	0.0968018	0	-1	0
0.974365	-0.147705	0.0964355	0	-1	0
0.973755	-0.148193	0.0980225	0	-1	0
0.974487	-0.147461	0.0975342	0	-1	0
0.974609	-0.148682	0.0970459	0	-1	0
0.973511	-0.147705	0.0979004	0	-1	0
0.972656	-0.147827	0.0966797	0	-1	0
0.974854	-0.146606	0.0950928	0	-2	0
0.975464	-0.147949	0.0942383	0	-2	0
0.974976	-0.14917	0.0952148	0	-2	0
0.974487	-0.149536	0.0960693	0	-2	0
0.975342	-0.149414	0.0958252	0	-2	0
0.97522	-0.150269	0.0936279	0	-3	0
0.974609	-0.150513	0.0925293	1	-2	0
0.974731	-0.150757	0.0927734	1	-2	0
0.975098	-0.150757	0.0913086	1	-2	0
0.974854	-0.14917	0.0939941	0	-2	0
0.974609	-0.151123	0.0941162	0	-2	0
0.972656	-0.151245	0.0965576	0	-2	0
0.974854	-0.149536	0.0975342	1	-2	0
0.974731	-0.14856	0.0994873	2	-2	0
0.975342	-0.148682	0.0970459	2	-2	0
0.975952	-0.144897	0.0941162	3	-2	0
0.976074	-0.145386	0.0882568	3	-2	0
0.974854	-0.145264	0.0859375	2	-2	0
0.975342	-0.15271	0.0892334	2	-2	0
0.97583	-0.149414	0.0916748	2	-2	0
0.974854	-0.146118	0.0897217	2	-3	0
0.976318	-0.146118	0.0858154	2	-3	0
0.977661	-0.148315	0.0871582	1	-3	0
0.97522	-0.148682	0.088501	1	-3	0
0.97522	-0.149292	0.0892334	1	-3	0
0.974609	-0.149048	0.0889893	1	-4	0
0.976318	-0.148438	0.0899658	1	-4	0
0.97644	-0.146851	0.0897217	1	-4	0
0.974976	-0.14563	0.0911865	1	-4	0
0.974243	-0.146484	0.092041	0	-4	0
0.973022	-0.146118	0.0911865	0	-5	0
0.974976	-0.144897	0.0898438	0	-5	0
0.976196	-0.145996	0.0858154	0	-6	0
0.976929	-0.147095	0.0853271	0	-6	0
0.977539	-0.147949	0.0849609	0	-6	0
0.974121	-0.148926	0.086792	0	-6	0
0.973022	-0.14856	0.0861816	0	-6	0
0.973389	-0.147583	0.0882568	0	-7	0
0.9729	-0.147827	0.0931396	0	-8	0
0.969727	-0.147827	0.0947266	0	-9	0
0.970581	-0.147827	0.0910645	-1	-10	0
0.973022	-0.147583	0.0855713	-1	-11	0
0.974609	-0.146973	0.0841064	-1	-12	0
0.973511	-0.147461	0.0883789	-1	-13	0
0.971191	-0.146606	0.0888672	-1	-14	0
0.971924	-0.147949	0.0865479	-1	-15	0
0.972656	-0.147583	0.0834961	-1	-16	0
0.973755	-0.146851	0.0795898	-1	-16	0
0.978394	-0.147339	0.0715332	-2	-17	0
0.979126	-0.146973	0.0654297	-1	-16	0
0.980713	-0.147461	0.0606689	-1	-16	0
0.983643	-0.149048	0.0562744	-1	-15	0
0.98291	-0.149536	0.0528564	-1	-14	0
0.982666	-0.150757	0.0513916	-1	-13	0
0.984131	-0.148804	0.0534668	-1	-12	0
0.979248	-0.149292	0.0541992	-1	-12	0
0.97937	-0.148315	0.0496826	-1	-11	0
0.98645	-0.146606	0.0415039	0	-10	0
0.989136	-0.146118	0.0361328	0	-8	0
0.983032	-0.146851	0.0487061	0	-6	0
0.975464	-0.146484	0.0617676	0	-5	0
0.989746	-0.147095	0.0377197	0	-5	0
1.03308	-0.145752	-0.0699463	0	0	0
0.990723	-0.147339	0.0238037	2	11	0
0.965454	-0.146851	0.0891113	2	15	1
0.971436	-0.147217	0.0841064	2	12	0
0.974487	-0.147339	0.0701904	2	10	1
0.970337	-0.147095	0.0718994	2	9	0
0.966553	-0.147705	0.0836182	1	9	0
0.964478	-0.148438	0.0936279	1	7	0
0.964478	-0.149414	0.0900879	0	5	0
0.973022	-0.148682	0.0760498	0	3	0
0.97644	-0.148315	0.0640869	0	1	0
0.981201	-0.147339	0.0587158	0	1	0
0.984009	-0.147705	0.0551758	0	1	0
0.980957	-0.149292	0.0585938	0	2	0
0.978027	-0.149658	0.0667725	0	2	0
0.973389	-0.148193	0.0751953	0	2	0
0.969238	-0.14856	0.0814209	0	1	0
0.971313	-0.149414	0.0793457	0	0	0
0.973267	-0.14856	0.0734863	0	0	0
0.976807	-0.147705	0.069458	0	0	0
0.977539	-0.146606	0.0682373	0	0	0
0.978516	-0.146973	0.0664062	0	0	0
0.97937	-0.148071	0.0639648	0	0	0
0.978882	-0.146851	0.0632324	0	0	0
0.978271	-0.146851	0.0639648	0	0	0
0.979004	-0.14978	0.0625	0	0	0
0.977783	-0.147583	0.0643311	0	0	0
0.977661	-0.148438	0.0648193	0	0	0
0.977417	-0.149048	0.0643311	0	0	0
0.976929	-0.14917	0.0646973	0	0	0
0.978149	-0.148315	0.0648193	0	0	0
0.978516	-0.148804	0.064209	0	1	0
0.976929	-0.148071	0.065918	0	1	0
0.974854	-0.145996	0.0695801	0	1	0
0.975586	-0.147705	0.0720215	0	1	0
0.974976	-0.14624	0.0771484	0	1	0
0.973999	-0.145874	0.0771484	0	0	0
0.975586	-0.145752	0.0751953	0	0	0
0.97522	-0.146362	0.072998	0	-1	0
0.975098	-0.146851	0.0706787	0	-1	0
0.976318	-0.147827	0.0697021	0	-2	0
0.975586	-0.148071	0.0717773	0	-2	0
0.975464	-0.148804	0.0716553	0	-3	0
0.974487	-0.148926	0.0715332	0	-3	0
0.974854	-0.147827	0.0709229	0	-4	0
0.97876	-0.148071	0.0666504	0	-4	0
0.978149	-0.147583	0.0633545	0	-4	0
0.980103	-0.147461	0.057251	0	-4	0
0.977051	-0.146973	0.0599365	0	-3	0
0.978027	-0.146729	0.0621338	0	-3	0
0.977417	-0.14563	0.0637207	0	-3	0
0.976929	-0.14624	0.0650635	0	-3	0
0.977783	-0.146118	0.0646973	0	-3	0
0.976318	-0.147095	0.0616455	0	-4	0
0.979492	-0.147583	0.0581055	0	-4	0
0.980225	-0.147339	0.0561523	0	-3	0
0.981934	-0.146118	0.053833	0	-2	0
0.981323	-0.147339	0.052002	0	-2	0
0.980957	-0.147583	0.0545654	0	-1	0
0.979736	-0.145996	0.0544434	0	0	0
0.980835	-0.147827	0.0568848	0	0	0
0.978882	-0.147461	0.0596924	0	0	0
0.978271	-0.149292	0.0623779	0	0	0
0.977295	-0.149292	0.0623779	0	1	0
0.977417	-0.149292	0.0623779	0	1	0
0.977905	-0.14978	0.057373	0	1	0
0.982666	-0.150269	0.0518799	0	1	0
0.983276	-0.148071	0.0524902	0	2	0
0.981934	-0.147705	0.0490723	0	3	0
0.985229	-0.147583	0.0463867	0	5	0
0.979736	-0.146973	0.0550537	1	7	0
0.977295	-0.146484	0.0653076	1	8	0
0.973999	-0.145996	0.0709229	1	8	0
0.974609	-0.146606	0.0715332	1	7	0
0.973511	-0.147339	0.0731201	1	6	0
0.972046	-0.147217	0.0767822	1	6	0
0.974487	-0.147217	0.0721436	0	5	0
0.973389	-0.149536	0.0726318	0	5	0
0.975952	-0.146484	0.0717773	0	4	0
0.978394	-0.147461	0.0699463	0	4	0
0.97998	-0.148438	0.0628662	0	4	0
0.983032	-0.148682	0.0571289	0	4	0
0.983276	-0.147095	0.0563965	0	6	0
0.983276	-0.147949	0.0561523	1	7	0
0.982056	-0.149658	0.0577393	1	9	0
0.978516	-0.150146	0.0665283	1	10	0
0.974121	-0.14917	0.0749512	1	11	0
0.97522	-0.148315	0.0793457	1	11	0
0.977295	-0.147461	0.0760498	1	11	0
0.976562	-0.147949	0.0750732	1	11	0
0.976196	-0.146362	0.0772705	1	11	0
0.975952	-0.146118	0.081665	1	11	0
0.973145	-0.145508	0.0844727	1	11	0
0.974365	-0.145874	0.0825195	1	10	0
0.975952	-0.146484	0.0858154	1	10	0
0.973877	-0.145874	0.090332	1	9	0
0.973755	-0.146729	0.090332	1	8	0
0.973999	-0.148193	0.0898438	1	7	0
0.974121	-0.147583	0.088501	1	6	0
0.974365	-0.149536	0.0844727	1	6	0
0.97644	-0.149048	0.0844727	1	6	0
0.976929	-0.149536	0.0841064	1	6	0
0.976807	-0.147827	0.0856934	1	6	0
0.976807	-0.148804	0.0866699	1	7	0
0.973145	-0.14917	0.0922852	1	7	0
0.971436	-0.148438	0.0946045	1	6	0
0.973389	-0.148926	0.0963135	1	5	0
0.97522	-0.146484	0.088501	0	5	0
0.977051	-0.148926	0.0895996	0	5	0
0.972778	-0.14978	0.0979004	0	4	0
0.971558	-0.147461	0.0997314	0	3	0
0.9729	-0.147705	0.0996094	0	2	0
0.970825	-0.147461	0.0977783	0	2	0
0.973022	-0.148193	0.0957031	0	1	0
0.974854	-0.147461	0.0926514	0	1	0
0.974976	-0.148071	0.0925293	0	0	0
0.974365	-0.147949	0.09375	0	0	0
0.973755	-0.14856	0.0959473	0	0	0
0.973267	-0.14917	0.095459	0	0	0
0.974854	-0.149414	0.092041	0	-1	0
0.974121	-0.150757	0.0881348	0	-1	0
0.976929	-0.150269	0.085083	0	0	0
0.973755	-0.149536	0.0936279	0	0	0
0.972534	-0.148438	0.0985107	0	0	0
0.970825	-0.149536	0.0994873	0	-1	0
0.970703	-0.147583	0.0986328	0	-2	0
0.9729	-0.146606	0.0933838	0	-3	0
0.97583	-0.147827	0.0894775	0	-3	0
0.976318	-0.147583	0.0888672	0	-3	0
0.976318	-0.147461	0.0876465	0	-3	0
0.974243	-0.14856	0.0882568	0	-2	0
0.973267	-0.149048	0.0911865	0	-2	0
0.973511	-0.148193	0.0917969	0	-3	0
0.973755	-0.148682	0.0919189	0	-3	0
0.973267	-0.148804	0.09375	0	-3	0
0.971802	-0.147705	0.0950928	0	-4	0
0.970947	-0.148804	0.0932617	0	-5	0
0.973267	-0.149658	0.0876465	0	-5	0
0.976929	-0.148926	0.081543	0	-5	0
0.979004	-0.14978	0.0793457	0	-5	0
0.980591	-0.148071	0.0759277	0	-4	0
0.979614	-0.148193	0.0794678	0	-4	0
0.977539	-0.147339	0.0828857	0	-3	0
0.977661	-0.146484	0.0838623	0	-3	0
0.975708	-0.147461	0.0847168	0	-3	0
0.975098	-0.148071	0.0844727	0	-3	0
0.975708	-0.147217	0.0854492	0	-3	0
0.974487	-0.148315	0.0860596	0	-3	0
0.97522	-0.149902	0.0839844	0	-3	0
0.976685	-0.148682	0.0802002	0	-3	0
0.977295	-0.147949	0.0806885	0	-3	0
0.977661	-0.148193	0.083252	0	-3	0
0.975342	-0.149292	0.0839844	0	-3	0
0.974121	-0.147827	0.0836182	0	-3	0
0.97644	-0.146851	0.0812988	0	-3	0
0.976685	-0.146484	0.0787354	0	-3	0
0.976685	-0.147949	0.081665	0	-3	0
0.976318	-0.148438	0.0811768	0	-3	0
0.976929	-0.148682	0.0803223	0	-3	0
0.977051	-0.148193	0.0806885	0	-4	0
0.976074	-0.149048	0.0806885	0	-4	0
0.975708	-0.147705	0.081543	0	-4	0
0.976074	-0.147339	0.0794678	0	-4	0
0.97876	-0.14624	0.0756836	0	-4	0
0.978516	-0.147705	0.074585	0	-4	0
0.976929	-0.146729	0.0744629	0	-4	0
0.978149	-0.145874	0.0744629	0	-3	0
0.979248	-0.146606	0.074707	0	-3	0
0.977295	-0.14856	0.0751953	0	-3	0
0.977417	-0.148071	0.0767822	0	-3	0
0.977295	-0.149292	0.0759277	0	-2	0
0.976807	-0.148926	0.0748291	0	-2	0
0.975708	-0.149048	0.0751953	0	-2	0
0.976685	-0.146606	0.0739746	0	-2	0
0.977295	-0.146851	0.0727539	0	-2	0
0.976074	-0.145874	0.0737305	0	-2	0
0.975708	-0.146362	0.076416	0	-2	0
0.976562	-0.146362	0.0744629	0	-2	0
0.976074	-0.147339	0.0726318	0	-2	0
0.976074	-0.147461	0.0734863	0	-2	0
0.97583	-0.149048	0.0736084	0	-2	0
0.976318	-0.148926	0.0734863	0	-2	0
0.97583	-0.148682	0.0725098	0	-2	0
0.977051	-0.148926	0.0721436	0	-2	0
0.977783	-0.149902	0.0722656	0	-2	0
0.977417	-0.14856	0.0705566	0	-2	0
0.977783	-0.148071	0.0709229	0	-1	0
0.977539	-0.147217	0.0726318	0	-1	0
0.976807	-0.146606	0.0727539	0	-1	0
0.977661	-0.145386	0.0721436	0	-1	0
0.976562	-0.145264	0.072876	0	-1	0
0.977417	-0.145752	0.0734863	0	-2	0
0.97583	-0.147949	0.0726318	0	-2	0
0.97644	-0.148438	0.0722656	0	-2	0
0.976562	-0.147827	0.072998	0	-2	0
0.976074	-0.14917	0.0697021	0	-2	0
0.978638	-0.148682	0.0675049	0	-2	0
0.977539	-0.148804	0.0675049	0	-2	0
0.977295	-0.147949	0.0667725	0	-2	0
0.979492	-0.147583	0.0649414	0	-2	0
0.980225	-0.146851	0.0640869	0	-1	0
0.97876	-0.14563	0.0640869	0	-1	0
0.979004	-0.146362	0.0679932	0	0	0
0.977417	-0.145264	0.069458	0	0	0
0.976807	-0.146729	0.0699463	0	0	0
0.97644	-0.146973	0.0701904	0	0	0
0.975464	-0.147583	0.0704346	0	0	0
0.97644	-0.146606	0.0706787	0	0	0
0.976929	-0.147095	0.0703125	0	0	0
0.977295	-0.147705	0.0688477	0	0	0
0.978271	-0.147827	0.0662842	0	0	0
0.978271	-0.147827	0.0645752	0	0	0
0.97644	-0.148193	0.0650635	0	0	0
0.977783	-0.149414	0.0675049	0	0	0
0.978149	-0.148926	0.0682373	0	0	0
0.978149	-0.148438	0.0684814	0	0	0
0.976685	-0.148315	0.0690918	0	0	0
0.976318	-0.146973	0.0705566	0	0	0
0.976562	-0.146729	0.0710449	0	0	0
0.977539	-0.146729	0.0716553	0	0	0
0.977661	-0.147583	0.0722656	0	0	0
0.977783	-0.147217	0.0700684	0	0	0
0.976685	-0.147217	0.0698242	0	0	0
0.976318	-0.147217	0.0687256	0	0	0
0.976807	-0.144897	0.0689697	0	0	0
0.978027	-0.146484	0.0666504	0	0	0
0.979736	-0.146851	0.0661621	0	1	0
0.978271	-0.14624	0.0687256	0	1	0
0.976074	-0.147949	0.071167	0	1	0
0.975952	-0.148926	0.0722656	0	1	0
0.976807	-0.148804	0.0726318	0	1	0
0.976562	-0.148315	0.0726318	0	1	0
0.976196	-0.14917	0.0725098	0	0	0
0.975708	-0.149536	0.0712891	0	0	0
0.977295	-0.150391	0.0708008	0	0	0
0.977295	-0.150024	0.0693359	0	0	0
0.979736	-0.148193	0.0679932	0	0	0
0.978516	-0.147217	0.0667725	0	1	0
0.978638	-0.146118	0.0667725	0	1	0
0.978027	-0.146362	0.0708008	0	1	0
0.977173	-0.145752	0.0726318	0	1	0
0.975952	-0.147095	0.0743408	0	1	0
0.97522	-0.147705	0.0737305	0	1	0
0.975708	-0.147461	0.0740967	0	1	0
0.975098	-0.147583	0.0751953	0	1	0
0.975464	-0.148315	0.0748291	0	0	0
0.976562	-0.147461	0.0743408	0	0	0
0.975586	-0.146851	0.0736084	0	0	0
0.976318	-0.14856	0.0726318	0	0	0
0.977295	-0.148926	0.0732422	0	0	0
0.976562	-0.147949	0.071167	0	0	0
0.978394	-0.146973	0.0703125	0	0	0
0.979736	-0.147461	0.0683594	0	0	0
0.979248	-0.146729	0.0684814	0	0	0
0.97876	-0.146729	0.0712891	0	0	0
0.978149	-0.147217	0.0731201	0	1	0
0.976807	-0.147827	0.0738525	0	0	0
0.976196	-0.147949	0.0744629	0	0	0
0.977173	-0.146362	0.0744629	0	0	0
0.975342	-0.147949	0.0739746	0	0	0
0.974731	-0.148071	0.0722656	0	0	0
0.977051	-0.147095	0.0722656	0	0	0
0.977173	-0.147095	0.0737305	0	0	0
0.977905	-0.148438	0.074585	0	0	0
0.976807	-0.148315	0.0717773	0	0	0
0.97644	-0.147949	0.0722656	0	0	0
0.975952	-0.148071	0.0742188	0	0	0
0.977295	-0.147827	0.0732422	0	0	0
0.977173	-0.149048	0.0726318	0	0	0
0.976318	-0.148071	0.072876	0	0	0
0.977295	-0.147217	0.0721436	0	0	0
0.976196	-0.147949	0.0716553	0	0	0
0.978271	-0.14624	0.0709229	0	0	0
0.977173	-0.146484	0.0717773	0	0	0
0.978149	-0.145752	0.0739746	0	1	0
0.978271	-0.145508	0.0726318	0	1	0
0.976685	-0.146484	0.072998	0	1	0
0.976074	-0.148193	0.0734863	0	1	0
0.975952	-0.148438	0.0749512	0	1	0
0.976318	-0.147705	0.0750732	0	0	0
0.976807	-0.148438	0.0754395	0	0	0
0.974976	-0.147339	0.0759277	0	0	0
0.976318	-0.147583	0.0771484	0	0	0
0.976074	-0.146362	0.0750732	0	0	0
0.978149	-0.147339	0.0748291	0	0	0
0.976929	-0.147583	0.074585	0	0	0
0.976196	-0.148315	0.0758057	0	0	0
0.976318	-0.148926	0.074707	0	0	0
0.977051	-0.147339	0.0765381	0	0	0
0.976807	-0.146851	0.0756836	0	0	0
0.978394	-0.147949	0.0754395	0	0	0
0.977295	-0.147583	0.0744629	0	0	0
0.975098	-0.147583	0.0744629	0	0	0
0.977051	-0.147583	0.0753174	0	0	0
0.976807	-0.147949	0.0733643	0	0	0
0.976807	-0.148438	0.0721436	0	0	0
0.979736	-0.147827	0.0706787	0	0	0
0.97644	-0.147461	0.0726318	0	0	0
0.977173	-0.147217	0.0748291	0	0	0
0.97583	-0.147583	0.0748291	0	0	0
0.97644	-0.146973	0.0748291	0	0	0
0.978394	-0.147217	0.0740967	0	0	0
0.975342	-0.146362	0.0761719	0	0	0
0.974731	-0.146973	0.0782471	0	0	0
0.976318	-0.147339	0.0788574	0	0	0
0.976074	-0.148438	0.0765381	0	0	0
0.976074	-0.148682	0.0749512	0	0	0
0.976807	-0.147461	0.0753174	0	0	0
0.977905	-0.148071	0.0760498	0	0	0
0.976562	-0.148682	0.0769043	0	0	0
0.976562	-0.147095	0.0754395	0	0	0
0.975586	-0.145142	0.0756836	0	0	0
0.978027	-0.147461	0.074585	0	0	0
0.978149	-0.147339	0.0738525	0	0	0
0.978394	-0.149658	0.0751953	0	0	0
0.977417	-0.148071	0.0770264	0	0	0
0.977783	-0.148071	0.0766602	0	0	0
0.976685	-0.147949	0.0776367	0	0	0
0.975342	-0.147339	0.0770264	0	0	0
0.975586	-0.147339	0.0744629	0	0	0
0.977173	-0.147827	0.0734863	0	0	0
0.977417	-0.146973	0.074707	0	0	0
0.976929	-0.147217	0.0754395	0	0	0
0.976685	-0.146729	0.0749512	0	0	0
0.976685	-0.147095	0.0739746	0	0	0
0.977661	-0.147339	0.0732422	0	0	0
0.977417	-0.14856	0.0749512	0	0	0
0.976807	-0.146851	0.0750732	0	0	0
0.976562	-0.146484	0.0760498	0	0	0
0.97583	-0.146729	0.074707	0	0	0
0.97644	-0.147949	0.0748291	0	0	0
0.977173	-0.146729	0.0756836	0	0	0
0.975952	-0.146729	0.0760498	0	0	0
0.977295	-0.145264	0.0765381	0	0	0
0.976318	-0.147583	0.0787354	0	0	0
0.976562	-0.147827	0.0782471	0	0	0
0.976562	-0.146729	0.0751953	0	0	0
0.976196	-0.146851	0.0750732	0	0	0
0.977783	-0.147095	0.0759277	0	0	0
0.976318	-0.147339	0.0755615	0	0	0
0.977051	-0.148926	0.0751953	0	0	0
0.977783	-0.148071	0.0766602	0	0	0
0.978394	-0.146484	0.0759277	0	0	0
0.978027	-0.147827	0.0769043	0	0	0
0.976685	-0.147827	0.0772705	0	0	0
0.977295	-0.147705	0.0772705	0	0	0
0.97644	-0.146606	0.0778809	0	0	0
0.975586	-0.146851	0.0776367	0	0	0
0.975464	-0.146729	0.076416	0	0	0
0.976196	-0.147095	0.0760498	0	0	0
0.976685	-0.147827	0.0750732	0	0	0
0.976929	-0.145752	0.0751953	0	0	0
0.975952	-0.145996	0.0742188	0	0	0
0.976685	-0.14624	0.0749512	0	0	0
0.976807	-0.147217	0.0750732	0	0	0
0.977051	-0.146362	0.0750732	0	0	0
0.977173	-0.146118	0.0754395	0	0	0
0.976196	-0.147705	0.076416	0	0	0
0.975098	-0.146851	0.0777588	0	0	0
0.975708	-0.147827	0.0782471	0	-1	0
0.97583	-0.147339	0.0794678	0	-1	0
0.975952	-0.148804	0.0777588	0	-1	0
0.977417	-0.14917	0.0740967	0	-1	0
0.979736	-0.149048	0.0688477	0	-1	0
0.979614	-0.147217	0.0670166	0	0	0
0.97876	-0.147705	0.0709229	0	0	0
0.977417	-0.148071	0.0740967	0	0	0
0.976685	-0.146484	0.0750732	0	0	0
0.978027	-0.14563	0.0743408	0	0	0
0.977051	-0.146729	0.0750732	0	0	0
0.974854	-0.146606	0.0770264	0	0	0
0.974609	-0.148193	0.0787354	0	0	0
0.974976	-0.147095	0.0767822	0	0	0
0.977417	-0.147705	0.0750732	0	0	0
0.976074	-0.148193	0.074707	0	0	0
0.97583	-0.147705	0.0748291	0	0	0
0.97583	-0.147583	0.0743408	0	0	0
0.977051	-0.147827	0.0731201	0	0	0
0.97644	-0.148071	0.0736084	0	0	0
0.976807	-0.148193	0.0750732	0	0	0
0.977417	-0.148071	0.0754395	0	0	0
0.977905	-0.147705	0.0744629	0	0	0
0.978638	-0.148315	0.0748291	0	0	0
0.97583	-0.148438	0.0755615	0	0	0
0.975464	-0.147095	0.0758057	0	0	0
0.97644	-0.148682	0.0767822	0	0	0
0.976318	-0.147217	0.0770264	0	0	0
0.975708	-0.147461	0.0767822	0	0	0
0.974976	-0.146729	0.0754395	0	0	0
0.976929	-0.14563	0.0738525	0	0	0
0.977295	-0.14624	0.0736084	0	0	0
0.977539	-0.147949	0.0726318	0	0	0
0.978027	-0.148071	0.0739746	0	0	0
0.977783	-0.147827	0.0753174	0	0	0
0.978394	-0.148438	0.076416	0	0	0
0.97644	-0.14917	0.074707	0	0	0
0.976074	-0.147827	0.0759277	0	0	0
0.976196	-0.147705	0.0758057	0	0	0
0.978149	-0.148926	0.0733643	0	0	0
0.978638	-0.147461	0.0727539	0	0	0
0.978638	-0.147217	0.072876	0	0	0
0.976807	-0.146973	0.0742188	0	0	0
0.97644	-0.147583	0.0742188	0	0	0
0.977661	-0.146362	0.0740967	0	0	0
0.976807	-0.145996	0.074585	0	0	0
0.977417	-0.146851	0.0755615	0	0	0
0.977173	-0.146362	0.0750732	0	0	0
0.976807	-0.147095	0.0761719	0	0	0
0.97583	-0.147583	0.0749512	0	0	0
0.97583	-0.148315	0.0753174	0	0	0
0.977661	-0.148438	0.0760498	0	0	0
0.978394	-0.148804	0.0762939	0	0	0
0.976196	-0.148438	0.0761719	0	0	0
0.975464	-0.149414	0.0755615	0	0	0
0.976196	-0.147583	0.0758057	0	0	0
0.978027	-0.148438	0.0758057	0	0	0
0.976807	-0.146729	0.076416	0	0	0
0.976562	-0.144897	0.0766602	0	0	0
0.976929	-0.146484	0.0758057	0	0	0
0.977783	-0.146973	0.0744629	0	0	0
0.97644	-0.146606	0.0758057	0	0	0
0.974976	-0.146973	0.0751953	0	0	0
0.97644	-0.145874	0.0765381	0	0	0
0.977295	-0.145874	0.0760498	0	0	0
0.977295	-0.146606	0.0750732	0	0	0
0.976562	-0.147583	0.074707	0	0	0
0.977417	-0.146118	0.0748291	0	0	0
0.97876	-0.148438	0.0733643	0	0	0
0.977905	-0.148071	0.0761719	0	0	0
0.975708	-0.14856	0.0772705	0	0	0
0.975464	-0.148682	0.0760498	0	0	0
0.976196	-0.148804	0.0753174	0	0	0
0.976318	-0.147217	0.0755615	0	0	0
0.97583	-0.147217	0.0758057	0	0	0
0.97644	-0.148193	0.0761719	0	0	0
0.977539	-0.14917	0.0751953	0	0	0
0.978027	-0.146973	0.0753174	0	0	0
0.978271	-0.14624	0.0754395	0	0	0
0.976318	-0.147095	0.0761719	0	0	0
0.97522	-0.146606	0.078125	0	0	0
0.976685	-0.146118	0.0753174	0	0	0
0.976807	-0.145386	0.0762939	0	0	0
0.975952	-0.146606	0.0756836	0	0	0
0.977173	-0.147339	0.0758057	0	0	0
0.975952	-0.147583	0.0753174	0	0	0
0.977051	-0.147827	0.0737305	0	0	0
0.977783	-0.147705	0.0727539	0	0	0
0.977783	-0.148926	0.0742188	0	0	0
0.978271	-0.148071	0.0760498	0	0	0
0.976074	-0.147949	0.0777588	0	0	0
0.977417	-0.148438	0.0760498	0	0	0
